x,y,z,R,P,Y,t1,t2,t3,t4,t5,t6
0.22414133,0.08985076,0.15540303,0.10384188,0.2047667,-0.94691265,-0.14292112,0.56284225,-0.40813774,-0.8477624,0.09549361,0.06001675
0.28178856,0.13082868,0.14661394,-0.056978896,0.42911357,-1.4838022,0.008363962,0.5062712,-0.06994045,-1.442851,-0.048720498,-0.072442114
0.16781731,0.14040646,0.26544455,0.24812075,0.20423658,-0.7990811,0.18012834,-0.015273333,-0.058493853,-0.879199,0.3622101,-0.08481842
0.17586172,0.112924986,0.29713473,0.13752423,0.06816804,-0.90529704,-0.022271812,-0.16563015,0.04829496,-0.62773234,0.23232335,-0.2586023
0.15063365,0.12927538,0.2664635,-0.044643123,0.2082482,-0.11333069,0.007990003,-0.05661583,-0.22657067,0.08878183,0.49361634,-0.20861992
0.17382269,0.050429136,0.21457605,0.24442193,-0.12553701,-1.3962595,-0.35932654,0.21466008,-0.43167248,-0.99300206,0.32665154,-0.08915061
0.22951744,0.042095806,0.16587713,0.37436563,0.30759215,-0.59905624,-0.31046134,0.47983658,-0.43918544,-0.5888504,0.4455678,0.36409563
0.2964173,0.13508458,0.16734165,-0.055949606,0.44419676,-1.3273706,0.023933023,0.3797902,0.082130134,-1.1893637,-0.043321405,-0.1840165
0.007362526,0.12501827,0.24221559,0.24624904,-0.52133137,0.18263102,0.23724836,-0.16091327,-0.49469697,-0.7786908,0.12621409,0.6283509
0.19828033,0.09158104,0.28456062,0.14428961,0.0022445228,-0.71148235,-0.12919733,-0.09480651,0.04119879,-1.0926619,0.16096994,0.50670284
0.26270527,0.03828519,0.16831996,0.17025787,0.45561752,-0.3976169,-0.34931374,0.4590459,-0.31172764,0.023088694,0.33699992,-0.03241694
0.21630614,0.07611236,0.15373802,-0.006972756,0.095939286,-1.6046007,-0.25038248,0.5851281,-0.46986198,-0.90348506,-0.038786963,-0.45282465
0.22751819,0.045131575,0.20368752,0.2321618,0.17877398,-1.1457059,-0.32480276,0.30137017,-0.30241233,-0.57833225,0.29290253,-0.22175404
0.17882761,0.04002747,0.22427107,0.23172638,-0.14866215,-1.4718745,-0.4128621,0.16821831,-0.37657693,-1.0441065,0.31456313,-0.06066993
0.31330472,0.066065535,0.18695629,0.15677679,0.53317076,-0.84350926,-0.18642744,0.2934205,0.085445404,-0.21633399,0.1776239,-0.39039934
0.13431041,0.11136003,0.20335098,-0.04016347,-0.28909057,-0.23044579,-0.112945855,0.26203364,-0.50778085,-0.13217854,-0.046384383,0.021282852
0.35686257,-0.019521333,0.109006666,0.4690447,0.7782121,-0.8614696,-0.4102645,0.52670056,0.08570427,-0.056990504,0.27037442,-0.19380108
0.12462269,0.11599915,0.23696314,0.08077189,-0.2695789,-1.3016417,-0.031971246,0.08256945,-0.36860204,-1.3641298,0.08823318,0.071072996
0.25155196,0.15126902,0.15828034,-0.030184368,0.36720148,-0.80865735,0.1020447,0.48293865,-0.12996325,-0.50922406,0.01753866,-0.40555644
0.15418902,0.13944085,0.220519,0.18598795,0.012967173,-0.9064928,0.15667504,0.21771926,-0.29382142,-1.2629457,0.19500375,0.19389808
0.14307575,0.07074151,0.2728018,-0.09223275,-0.19535042,-0.38713664,-0.44350985,-0.13743684,-0.2756687,-0.008600354,0.1973412,0.07366794
0.31377634,0.041201368,0.17948069,0.44244426,0.57266116,-0.3209116,-0.22745991,0.30864802,0.051048994,-0.64630866,0.38894978,0.7294919
0.09200293,0.13502868,0.28078073,0.19092876,-0.19578044,-0.5114473,0.18304765,-0.1449072,-0.17671433,-1.0193107,0.17420056,0.2820589
0.31133497,-0.011623276,0.17257954,0.46916816,0.32546887,-1.9141344,-0.3913029,0.35694247,0.04750067,-1.2555342,0.29243168,-0.13092503
0.23365656,0.023491625,0.16098171,0.28678226,0.20016734,-0.9437554,-0.40788698,0.5246181,-0.43300146,-0.70769495,0.27352506,0.20906371
0.30830404,0.11141546,0.114620954,0.12685035,0.8562723,-0.31976825,-0.033759236,0.5774672,-0.10196391,-0.1513077,0.39033347,-0.061590046
0.29021087,0.07656201,0.14477319,0.41353235,0.41549724,-0.99929804,-0.098331094,0.4998076,-0.08242297,-1.3871795,0.33824372,0.6461362
0.29612944,0.096611306,0.1646338,0.22651426,0.5614874,-1.1627935,-0.06463906,0.40188545,-0.023417115,-0.65939593,0.25630823,-0.34234455
0.09522597,0.122855455,0.26203808,0.2523242,-0.036070827,-0.45849925,0.12551105,-0.08586248,-0.32466906,-0.6424012,0.41765863,0.0027626753
0.10347604,0.13705206,0.2012403,0.07180381,-0.044020597,-0.02982054,0.13990825,0.26116446,-0.5807004,-0.2424537,0.273447,0.06072247
0.16524875,0.07100338,0.26486665,0.011272486,-0.19256055,-0.39793393,-0.33053696,-0.038367867,-0.21470085,-0.7759385,0.10380804,0.6982389
0.21679062,0.11526702,0.24442658,0.0022530647,0.07446271,0.07564004,-0.0477477,0.109493345,-0.049324155,0.09101403,0.014375605,0.03241831
0.3254601,0.12325719,0.1353675,0.017584614,0.6184047,-0.7687724,-0.0042757094,0.4586259,0.12805003,-0.3562473,0.03397941,-0.39903474
0.22301827,0.05321586,0.254466,0.4209093,0.0036409162,-1.2898649,-0.21764372,0.033606052,-0.0077658296,-1.4012326,0.41583723,0.33516526
0.30895707,0.08862439,0.15035301,0.083691515,0.47743198,-1.1486588,-0.11714837,0.46193826,0.008418739,-0.98078704,0.02410853,-0.025537312
0.24538901,0.079893745,0.2747669,0.052450947,0.19643354,0.3612666,-0.18875408,-0.046670362,0.136078,-0.122149825,0.11419595,0.6779646
0.16288836,0.09688994,0.24777293,0.105381414,-0.12629303,-0.587598,-0.13388142,0.06232448,-0.25804195,-0.9661968,0.14665821,0.4939925
0.06361814,0.13147156,0.24060641,0.082455665,-0.44102925,-1.141835,0.11017442,-0.02553089,-0.43836433,-1.0243399,0.03171815,-0.2525515
0.34465128,-0.012440028,0.10924789,0.38749114,0.6267926,-0.65309453,-0.39732456,0.5698182,0.038584232,-0.45676923,0.12555662,0.34572178
0.17251986,0.17326014,0.15553108,-0.05203997,0.15814765,-0.6651566,0.24551076,0.56393677,-0.39077866,-1.0174935,-0.013574772,0.10169947
0.08328113,0.12104337,0.25534844,0.14518073,-0.34518018,-1.3403378,0.039952457,-0.075165294,-0.3596557,-0.9885355,0.14721578,-0.44407398
0.16532071,0.13023858,0.1889447,0.0058286376,-0.0258935,-0.6154847,0.030828774,0.38954693,-0.4347062,-0.25734282,0.01974824,-0.38915968
0.2561894,0.05274795,0.14515272,0.44576737,0.28268465,-0.87260634,-0.20256166,0.5606101,-0.29556933,-1.2474436,0.37745652,0.6905437
0.21638794,0.10328337,0.18375097,0.12865783,0.122897424,-0.9644413,-0.068569005,0.41320002,-0.30354804,-1.3831376,0.121052556,0.50173086
0.29500794,0.028710134,0.2054613,0.17963965,0.33637443,-1.2178143,-0.32717556,0.25173566,0.035788596,-0.54577804,0.10352335,-0.3064435
0.1968401,0.15081793,0.16111504,-0.050710697,0.16058934,-0.6611029,0.11422783,0.53168917,-0.35892344,-1.3409712,-0.03234121,0.5588326
0.33550432,0.11080839,0.11372073,0.19515261,0.67617536,-1.7547706,-0.016921401,0.5199289,0.1339941,-1.3388604,0.1450156,-0.28197378
0.23363803,0.09937352,0.24552973,0.11281473,0.14867613,-0.8426765,-0.08642018,0.09794572,-0.0001333952,-1.0185515,0.115524165,0.27553225
0.09138845,0.12310597,0.24654537,-0.11164696,-0.45824823,-0.79629916,-0.07513276,-0.043902054,-0.39016575,-1.1194773,-0.07389174,0.43909574
0.21751696,0.010611167,0.17942393,0.4964737,-0.06329229,-2.0499125,-0.40828133,0.40278745,-0.36300397,-1.366324,0.49068415,-0.28158972
0.18162619,0.10714386,0.18722652,0.09073833,0.20678228,-0.5049971,-0.07693964,0.3829732,-0.48749918,-0.22870374,0.32615417,-0.19380245
0.24987777,0.08839566,0.18923536,0.25502825,0.2934475,-0.73955816,-0.09580308,0.3554116,-0.1683603,-1.0108398,0.25376856,0.42538136
0.16451009,0.1234843,0.15054607,0.3664651,0.17079887,-1.0953305,0.12619072,0.5792258,-0.5364207,-1.346756,0.39111036,0.16523653
0.23853803,0.066372834,0.2134031,0.3978991,0.29424605,-0.78946215,-0.16769677,0.228017,-0.16907069,-0.8212259,0.44822943,0.2690826
0.2819979,0.18570049,0.12067674,-0.13102886,0.5767307,0.5768393,0.2022928,0.550124,0.03142929,-0.26932156,0.0085280165,0.6056296
0.15756078,0.056622557,0.26423937,0.26787442,-0.08309782,-0.46466056,-0.35503525,-0.070946425,-0.27067336,-0.68941617,0.449121,0.51995355
0.15373683,0.072922125,0.25677198,0.033562094,-0.2084574,-0.668399,-0.3327338,-0.018375888,-0.29386583,-0.6701999,0.1594544,0.31555355
0.24005811,0.03034682,0.18167572,0.3473749,0.07208751,-1.2881525,-0.32993054,0.4063189,-0.27235562,-1.4002931,0.30708545,0.4752223
0.24538256,0.06565809,0.19634485,0.3252323,0.17739353,-1.4774917,-0.17641908,0.32526314,-0.1732158,-1.274687,0.29562917,0.02456063
0.09193886,0.13186222,0.25940016,0.049853753,-0.3416872,-0.13795815,0.07971501,-0.06087017,-0.3004832,-0.87659585,0.026182644,0.6466494
0.18879265,0.041969344,0.18800049,0.09140152,-0.08181152,-1.2803993,-0.43727893,0.3815773,-0.5060934,-0.9258337,0.14695919,0.07165581
0.18727298,0.13062699,0.21850374,0.019731212,0.03165203,-0.308843,0.03455493,0.23928344,-0.23830643,-0.6067392,0.03648988,0.26366377
0.067311995,0.14615642,0.2528628,0.10996964,-0.3217947,-0.6521003,0.25810367,-0.028883904,-0.33456457,-0.68197423,0.03163793,-0.24975187
0.24745013,0.1857139,0.18430796,-0.067911886,0.38859263,-1.0439113,0.23236406,0.33221197,0.043150187,-0.9678864,0.03173685,-0.31678393
0.1701231,0.06556066,0.23049231,-0.019625215,-0.060478717,-0.29496047,-0.38835055,0.12626284,-0.41238922,-0.021535397,0.22277486,0.114836276
0.2575929,0.16468371,0.20944092,-0.011884323,0.36827046,-1.1258527,0.15646023,0.22011608,0.11372721,-0.95535374,0.05531753,-0.32153988
0.055522118,0.12757237,0.23222545,-0.10339941,-0.583301,-0.86431754,-0.037395954,-0.064608835,-0.5090126,-1.3532063,-0.06712813,0.57673174
0.22035015,0.14254686,0.20451897,0.17426378,0.2873049,-0.31887075,0.13082165,0.28530085,-0.12015146,-1.1089511,0.22739407,0.7015205
0.25961083,0.013967088,0.23217942,0.113045,0.11739228,-1.3202994,-0.43506297,0.16271693,-0.028899908,-1.1983838,0.05610142,0.32330227
0.17206416,0.17121902,0.1953618,-0.068477474,0.33779952,0.14319332,0.2455253,0.33973312,-0.32287923,-0.05576694,0.32758057,-0.058091074
0.2387488,0.032899603,0.19627059,0.127903,0.08664091,-1.0361431,-0.38415056,0.34950686,-0.26152754,-1.1275678,0.09465883,0.48489732
0.24183348,0.07776525,0.1752632,0.093727194,0.41245085,-0.2716066,-0.20440914,0.43551505,-0.3437593,-0.0079705715,0.33061647,-0.039482415
0.19572882,0.099726155,0.2745476,0.006180805,0.32022926,0.34453574,-0.15102723,-0.07744473,-0.10134843,0.08710849,0.49805528,0.4133308
0.21918055,0.17344072,0.23551871,-0.03363876,0.36709544,0.19547173,0.21587831,0.12472665,0.04697627,-0.2354393,0.19944447,0.21283883
0.108637646,0.079496816,0.22989556,0.2993943,-0.34926185,-0.6686053,-0.24095999,0.021357715,-0.49503735,-1.113359,0.40170538,0.54625326
0.17796876,0.087141626,0.28085616,-0.09759982,-0.15400381,-1.9591073,-0.25279486,-0.09458344,-0.06863564,-1.3816702,-0.05589045,-0.31261307
0.16556002,0.14866738,0.21269095,0.006281003,-0.010414452,0.047746524,0.13466495,0.26820856,-0.28448036,-0.756958,0.0070270896,0.6699676
0.1674206,0.12358559,0.247298,0.14245395,0.094470195,-0.0639582,0.043591112,0.076352656,-0.21323603,-0.5801458,0.26831234,0.46927696
0.13122544,0.14233702,0.26449692,0.22015181,0.23824292,0.2733979,0.22871602,-0.04116492,-0.19124004,-0.582169,0.49293405,0.6217877
0.2522356,0.06576824,0.2547025,0.09821392,0.26552176,-0.80347854,-0.23851076,0.046437517,0.03652072,-0.15099132,0.20041487,-0.39958942
0.19934195,0.11504179,0.22551483,0.39558643,0.16006231,-1.0072731,0.0711236,0.17650929,-0.14457425,-1.3135942,0.4159728,0.27386606
0.20067254,0.024107993,0.1940227,0.39148653,-0.056600753,-0.814696,-0.40811336,0.33366668,-0.4114855,-1.1406856,0.421802,0.7077798
0.24006464,0.17548719,0.21127108,0.11771703,0.63969827,-0.94780755,0.2517196,0.19014704,0.053973913,-0.6067894,0.4342944,-0.52214205
0.11311943,0.11592664,0.2529695,0.14874126,-0.086012416,-0.31737706,-0.00082570314,-0.027106866,-0.36339772,-0.46324033,0.336911,0.111097455
0.17420544,0.16643086,0.20917483,-0.031590797,0.030430151,0.010377331,0.20754063,0.28677484,-0.21075267,-0.5551481,-0.046736006,0.35656786
0.34726137,0.015015784,0.1441289,0.22937995,0.56491244,-0.026069503,-0.32355925,0.42293608,0.14741969,-0.3313502,0.036508374,0.69917816
0.20434067,0.13706052,0.15683267,0.42385176,0.3653775,-0.899919,0.1844393,0.50497144,-0.31634364,-1.3143954,0.4758727,0.35413158
0.21735369,0.098895624,0.25560212,-0.058186196,0.016632285,-1.4627005,-0.14471203,0.054745242,-0.02861327,-1.2788733,-0.062624656,-0.04038298
0.12894906,0.15775374,0.16594318,0.0100401305,-0.022462636,0.10262551,0.22445309,0.51671815,-0.5483011,-0.57114214,0.008854248,0.44912624
0.19556226,0.037731573,0.17070033,0.24447387,0.027803475,-1.6182904,-0.40652832,0.47455573,-0.55269873,-0.82140476,0.29270044,-0.3953456
0.14161457,0.15881315,0.22869836,0.013173681,-0.063768856,0.38266578,0.2121386,0.18118408,-0.25994873,0.041408896,0.013665214,0.1287204
0.35253352,-0.03634516,0.091039106,0.64709723,0.64255315,-1.2479218,-0.42819852,0.59368515,0.07651591,-0.79253715,0.27042562,0.2648636
0.053197995,0.14323413,0.20930281,0.10580336,-0.40188795,-0.020590747,0.250485,0.15880448,-0.56752545,-0.4290663,-0.0067275986,0.13700026
0.1757524,0.1548143,0.1619255,0.039555572,0.23357111,0.11292293,0.18258566,0.5305485,-0.43429238,-0.56427,0.14988306,0.50312847
0.29215991,0.12018125,0.17125086,0.03604156,0.5351865,-0.18652917,-0.012550354,0.37567675,0.010372698,-0.1634469,0.15171388,0.0042569637
0.32252932,0.10233743,0.1164165,0.2162467,0.64882314,-1.7059945,-0.043343544,0.5520273,0.034988403,-1.0775586,0.16493985,-0.46758968
0.19896677,0.0525706,0.19891989,0.10479687,0.23174362,-0.32476726,-0.39471942,0.3023947,-0.49413127,-0.0131284,0.44565725,0.094729304
0.2516098,0.09304183,0.26137683,0.14354503,0.20279634,-0.66107595,-0.100560695,0.010293931,0.14780593,-1.110122,0.13346091,0.5737433
0.21552525,0.040021587,0.16594473,0.2646568,0.10060981,-0.7039199,-0.35319087,0.50542283,-0.47205228,-0.9426501,0.26184276,0.60888416
0.19260278,0.14396593,0.25793847,0.055471066,0.25360164,-0.5812424,0.11877912,0.032157183,-0.04350251,-0.3162439,0.27022907,-0.37718344
0.21325032,0.03621268,0.27365947,-0.004203823,-0.022934189,-0.87679553,-0.44799113,-0.04122995,-0.04355043,-0.09840441,0.06259044,-0.3306123
0.1352325,0.14801578,0.17287442,-0.005747894,-0.070867434,-0.50607914,0.14820701,0.47401148,-0.53759766,-1.2331065,-0.0170926,0.5795371
0.3334247,0.0838323,0.11893144,0.34893876,0.6584414,-1.1393919,-0.08412993,0.5165179,0.08426136,-1.1350086,0.24291429,0.2696767
0.18364988,0.093766384,0.24959321,0.14114615,-0.031581994,-0.50158185,-0.12710077,0.069604576,-0.18661374,-0.9522368,0.17702937,0.56707865
0.24308726,0.13279532,0.19411668,0.18445018,0.5511609,-0.1323466,0.080415845,0.3031324,-0.13267109,-0.50245273,0.4232783,0.35995376
0.21850331,0.1339993,0.17554912,0.12615728,0.33986884,-0.82324797,0.07956451,0.43593585,-0.27995065,-0.6948466,0.2280429,-0.1747511
0.19359241,0.12422401,0.28520936,0.07342808,0.07616706,-1.1222172,0.01826483,-0.09374267,0.07737249,-0.6861373,0.11790628,-0.45215753
0.2695625,0.12076291,0.22946481,0.0047569945,0.40182257,-0.25965846,-0.017892092,0.13871875,0.104531884,0.016587138,0.1586119,-0.25771004
0.2619428,0.17268983,0.19068414,0.24678792,0.5035499,-1.0517671,0.24206895,0.26402062,0.14228612,-1.4248418,0.332995,0.26361
0.14702299,0.13798572,0.23566285,0.13203049,-0.023647636,-0.38566968,0.13272977,0.13641307,-0.26916793,-0.9519222,0.1569587,0.4234689
0.10870179,0.14279312,0.18828622,0.029508715,-0.14931375,0.36863175,0.1497528,0.35738426,-0.5768808,-0.0984174,0.067787685,0.31435752
0.15770362,0.08023649,0.22350408,-0.05021764,-0.21398163,-0.99720925,-0.3080808,0.16067255,-0.42565292,-0.36673796,0.04924138,-0.31934232
0.13989529,0.065711044,0.2528345,-0.015716938,-0.28393525,-1.1842724,-0.43697065,-0.041100845,-0.3651985,-0.64184904,0.1760999,-0.124666184
0.17763367,0.1215723,0.23168461,0.30124134,0.19762823,-1.314719,0.08567178,0.14643815,-0.2282627,-0.8933551,0.4045154,-0.4899584
0.2531547,0.09703313,0.22137713,0.05182744,0.3393688,0.00712643,-0.11182141,0.20194173,-0.06298041,-0.056201816,0.2043226,0.1848386
0.17623371,0.0638568,0.2932899,0.22084844,-0.085390985,-1.5351715,-0.28333905,-0.16747698,-0.030320942,-0.93967444,0.29327422,-0.34509128
0.29580024,-0.01218624,0.15754928,0.30942672,0.31473675,-2.1151905,-0.44879776,0.47303122,-0.107685864,-1.1658187,0.13814178,-0.42747846
0.13302363,0.10264728,0.23919666,0.062301226,0.044193394,-0.47532675,-0.15480253,0.029688805,-0.45416218,-0.11845362,0.48069668,-0.21255335
0.29794204,0.08544045,0.17172667,-0.0013201569,0.3802607,-1.4242809,-0.14997718,0.39318025,0.0015181303,-1.2560138,-0.059633322,-0.029864252
0.14872456,0.15595347,0.18757382,0.048838336,0.031428106,-0.3740847,0.20756704,0.398665,-0.41347286,-0.9914717,0.064841025,0.41018587
0.08105647,0.13796291,0.22117256,0.06849747,-0.32268783,0.021367485,0.14972931,0.1269795,-0.4940998,-0.41908205,0.041495413,0.27644318
0.34607565,0.077575326,0.12125798,0.25884578,0.7260309,-0.366518,-0.119767964,0.4855553,0.13250047,-0.67982525,0.17704245,0.5682946
0.10859829,0.11490399,0.2720937,0.29088998,-0.15328372,-1.314489,0.06134814,-0.11450328,-0.22781396,-1.0473585,0.3213383,-0.3988201
0.26738718,0.05295884,0.19444877,0.2200305,0.254183,-1.6657252,-0.24511248,0.3295262,-0.11503866,-1.0250406,0.16917726,-0.35166597
0.30899012,0.13785055,0.10883231,0.10884251,0.90263104,-0.5476997,0.06347376,0.568204,-0.035641015,-0.31534803,0.38665882,-0.2081407
0.15781909,0.11336433,0.19284086,0.01898129,-0.07626419,-0.72607607,-0.06830132,0.3547842,-0.49432528,-0.3564837,0.069057755,-0.30369622
0.20539199,0.1130655,0.2902166,-0.007875513,0.0052893176,-0.357517,-0.06374881,-0.11547836,0.13280553,-0.5785668,-0.014989432,0.28470683
0.3459183,0.025203578,0.10538437,0.6312514,0.63098526,-1.4346648,-0.23374563,0.5426412,0.0866586,-1.0924009,0.37713608,0.21724081
0.17590913,0.11553337,0.29937103,0.14527427,-0.039015442,-1.0430512,-0.0038233995,-0.17043993,0.09917945,-1.3530239,0.14885357,0.3057695
0.32867008,0.0041918363,0.11198133,0.38616264,0.78397536,-0.83538055,-0.38195765,0.59263504,-0.11193389,0.04291892,0.37483802,-0.3392293
0.2544061,0.18141699,0.15859804,-0.098038115,0.3733194,-0.118590206,0.20300716,0.44666928,-0.010722756,-0.30023503,-0.053236004,-0.043360442
0.1896075,0.14215913,0.15349907,0.10114004,0.21605965,-1.1405735,0.1245932,0.5739044,-0.42452252,-1.1641905,0.13596731,-0.08061996
0.26281857,0.06381391,0.17827119,0.124417804,0.31934914,-0.3450665,-0.23277201,0.41563112,-0.20885512,-0.3092568,0.1391862,0.22145748
0.24602799,0.031249918,0.21998703,0.07444716,0.15004806,-0.36599442,-0.40100232,0.22783369,-0.16044268,-0.093722224,0.10016347,0.13464528
0.06455787,0.11990316,0.24259786,0.3507036,-0.30141422,-0.83138394,0.16237754,-0.03676653,-0.42721152,-1.2491139,0.29492813,0.13572598
0.13892616,0.1371205,0.26880983,0.10723636,-0.023034932,-0.68237543,0.12429601,-0.037351936,-0.15152004,-0.5996306,0.18412319,-0.21807611
0.1430477,0.14058489,0.2074984,-0.037938945,-0.14833854,-0.7881388,0.081098795,0.27945328,-0.39955753,-1.1049621,-0.055278055,0.24151629
0.25635833,0.07249531,0.19830048,0.19965409,0.39964992,-0.97462565,-0.18559766,0.30770677,-0.17775846,-0.34956002,0.32008627,-0.39163727
0.1828601,0.060990173,0.20632659,-0.06021823,-0.14636628,-0.5475027,-0.38644084,0.2790471,-0.4329096,-0.04157996,-0.004328966,-0.115051925
0.22201112,0.17993009,0.19968826,0.089968674,0.38242114,-0.21282765,0.27089763,0.2850958,-0.01982224,-1.1381744,0.19978613,0.69629234
0.1909924,0.108354084,0.26453134,0.123832285,0.28687102,0.1855986,-0.056123257,-0.020258263,-0.12338054,-0.23784816,0.44965577,0.48984617
0.29906538,0.013777395,0.17026556,0.24164625,0.5951782,-0.6012575,-0.39365613,0.3986901,-0.13196194,0.08858812,0.37072268,-0.22631487
0.21262409,0.14274369,0.18781482,-0.006480105,0.44453028,0.42053443,0.08868188,0.3660388,-0.2904898,-0.08949351,0.36927873,0.42115217
0.009674244,0.12818973,0.24519402,0.17052966,-0.57609904,0.07172436,0.20418638,-0.1753289,-0.47244114,-0.52158767,0.05802677,0.3288601
0.17690003,0.09707127,0.2747037,0.036770575,-0.08190932,-1.1055926,-0.14943287,-0.05717781,-0.08993304,-0.5961272,0.08633434,-0.36510408
0.19042762,0.15396312,0.18879864,-0.036485527,0.100436166,-1.5553532,0.13552171,0.38943374,-0.27734715,-1.24321,-0.023675077,-0.45075625
0.14736477,0.11140827,0.240829,-0.021730471,-0.22113936,-0.6390901,-0.09856498,0.08622125,-0.30984473,-0.32719278,0.0015173852,-0.21097443
0.15722375,0.120079674,0.23626383,0.25649175,0.07501964,-0.69538015,0.06842971,0.11987969,-0.28064445,-0.8840255,0.33948302,0.1087271
0.25252855,0.10642542,0.22320378,0.37702918,0.4448273,-0.6465506,0.009426534,0.15720856,0.008381069,-0.8714205,0.45511335,0.33145845
0.09388222,0.13953623,0.23170587,0.02498991,0.06778869,0.5836832,0.15679306,0.06323391,-0.49536774,-0.07398248,0.49637395,0.49392956
0.14848137,0.13631591,0.29319403,-0.0067131906,-0.16454965,0.12993068,0.064332366,-0.14822096,0.0206846,-0.44167423,-0.04010786,0.5089223
0.15017861,0.13894704,0.27957454,0.12404936,0.19421558,-0.567472,0.14365697,-0.09554021,-0.08760312,-0.40153992,0.38776943,-0.3113532
0.09860098,0.12218759,0.24309103,0.07961829,-0.35403448,-1.1314555,0.012559146,0.013857603,-0.3845805,-1.3636321,0.07183827,0.19219732
0.24233851,0.07941212,0.21494934,0.019178437,0.11952798,-0.579833,-0.19880907,0.2521211,-0.12737828,-0.9108321,-0.006184049,0.5306507
0.17186964,0.09319142,0.26075315,0.011762783,0.15112804,0.012725948,-0.20783712,-0.023942187,-0.25584704,0.047191262,0.43051875,0.17708051
0.092419066,0.08917875,0.25531006,-0.057017554,-0.44592732,-0.5226271,-0.39499062,-0.17709216,-0.43055546,-0.6054768,0.20975041,0.45420074
0.17929213,0.111596815,0.21410426,0.26927546,0.21152315,-0.41310626,0.016248494,0.23299664,-0.34066042,-0.71122956,0.41548908,0.29593116
0.27230012,0.16449958,0.19189742,0.048155807,0.6395198,-0.3917951,0.16802734,0.26102048,0.09130174,-0.4727208,0.30767924,-0.045386016
0.17651369,0.10886048,0.1878447,0.020754563,0.026632756,-0.52096915,-0.0897277,0.39186317,-0.4690762,-0.17170715,0.10716719,-0.25996444
0.23175327,0.09817126,0.21809477,0.23876879,0.38878322,-1.0977588,-0.065390885,0.20995107,-0.16530004,-0.5028496,0.4134403,-0.47776216
0.24244414,0.077670954,0.14239392,0.5354606,0.27103412,-1.0628312,-0.07465595,0.56359136,-0.30199808,-1.4043273,0.4970842,0.55711466
0.18631698,0.10620876,0.2607675,0.040740453,-0.027523147,-0.78815013,-0.09080738,0.021532461,-0.10953754,-0.5908707,0.077339284,-0.108928144
0.23741958,0.11104773,0.2660813,0.35500696,0.40948492,-0.48787367,0.027558535,-0.04186189,0.1429832,-0.8319083,0.4623186,0.40869445
0.10302745,0.11651917,0.27213883,0.08170324,-0.19500975,-0.3172753,-0.033517987,-0.13698606,-0.28319937,-0.36783838,0.24296871,0.057806253
0.19449656,0.15267168,0.25519282,0.0298621,0.14416064,-0.8073949,0.1485973,0.053899616,0.0012230277,-0.5465455,0.097301446,-0.4058935
0.22124463,0.057314843,0.26042554,0.21419173,0.041749056,-1.5640278,-0.26406008,0.022865713,-0.036198676,-1.0602219,0.22437167,-0.23656687
0.20372549,0.16899355,0.2517044,0.0997753,0.2847283,-0.51181394,0.24207014,0.05587232,0.079277515,-0.93238246,0.20077103,0.20380408
0.13319112,0.15074858,0.28393966,0.048824955,-0.122538626,-1.6437604,0.18423188,-0.10224946,-0.033823848,-1.3137486,0.026087962,-0.51895857
0.1671607,0.08406956,0.26213133,0.29755133,-0.059915207,-0.77528095,-0.1393198,-0.019441038,-0.18055049,-1.0492721,0.35100758,0.37374908
0.33431536,0.025840938,0.14679915,0.67848873,0.5988972,-1.1234361,-0.2304813,0.38776284,0.10457045,-0.92367613,0.49059486,0.3519895
0.29893973,0.041611876,0.14321804,0.19592798,0.47220784,-1.1042247,-0.28080273,0.5328573,-0.14327142,-0.33356488,0.12410661,-0.43445468
0.19390039,0.055795312,0.16314095,0.2933474,0.14616412,-1.5045447,-0.30112574,0.5091369,-0.5837261,-0.6640507,0.38245142,-0.5265902
0.14140087,0.15108357,0.25863415,0.091270246,-0.07349354,-1.2862362,0.19603926,0.02786842,-0.13360757,-1.3654101,0.076535575,-0.12418839
0.24534671,0.0818346,0.1510992,0.25417137,0.46467805,-0.08987603,-0.1398339,0.54484546,-0.36984482,-0.46750802,0.36325112,0.5926458
0.13945085,0.1270169,0.26145878,-0.05160234,-0.245554,-0.18994991,-0.010113865,-0.0133983195,-0.19391018,-0.8842721,-0.061543573,0.7157685
0.21616775,0.029863417,0.27869582,0.20097399,-0.05509828,-1.1429849,-0.4037446,-0.06876712,0.021849096,-1.2263409,0.21947664,0.4766814
0.22478636,0.07548698,0.18047342,0.030786484,0.106695764,-0.35042444,-0.23156245,0.43555456,-0.3464862,-0.2402823,0.022481263,0.12330294
0.2649461,0.15222122,0.16306713,-0.071093,0.36296132,-1.1660981,0.09085894,0.4407261,-0.04496014,-0.8863026,-0.043792352,-0.3904903
0.09296316,0.09179892,0.24874651,0.37809008,-0.35092232,-0.7496511,-0.106808186,-0.081564404,-0.39661592,-1.2400179,0.4149857,0.43395782
0.28160077,0.037998155,0.19683732,0.19155766,0.28170085,-0.57341766,-0.30001026,0.3080515,-0.051788628,-0.9222018,0.11640891,0.6880571
0.24711211,0.08187303,0.20668933,0.18497758,0.27435938,-0.21798575,-0.14519522,0.27863628,-0.14791912,-0.680867,0.21774521,0.64274067
0.057519197,0.12743036,0.2529774,0.02262618,-0.5057585,-0.41305688,0.03628266,-0.12618439,-0.3988666,-0.116535425,0.018963434,-0.33924228
0.2041082,0.05015217,0.25977993,0.045286123,0.10250794,-0.62448853,-0.39764628,0.011767238,-0.1785458,-0.006877303,0.27880248,-0.21780083
0.23703681,0.033870053,0.1570104,0.058569424,0.13635454,-0.9646417,-0.4095648,0.55984503,-0.41069925,-0.85048616,-0.0012418553,0.29933995
0.3033419,0.014160791,0.21927935,0.33040303,0.6216351,-0.46610507,-0.37111032,0.14664099,0.07019359,-0.07537258,0.4771917,0.0914821
0.25594798,0.1281223,0.23942971,-0.027349083,0.18181047,-0.05528435,0.004145205,0.10731596,0.14439088,-0.35914457,-0.074456275,0.29392385
0.26202452,0.0049584173,0.18099207,0.5080501,0.15168549,-1.755242,-0.37461168,0.37552458,-0.17418799,-1.2336866,0.4286495,-0.06569454
0.32567787,-0.0064985976,0.18167278,0.41510293,0.7293003,-0.9399317,-0.4135185,0.28030625,0.053690434,-0.016271234,0.48589975,-0.34829932
0.19757143,0.16385876,0.2538303,0.03173231,0.1508741,-1.0115021,0.1990298,0.057957917,0.051024377,-1.0735126,0.068851925,-0.13131583
0.18846786,0.15429263,0.21230441,-0.025274718,0.20608482,0.06720759,0.14686131,0.2648242,-0.2268646,-0.03242016,0.16966379,-0.04974252
0.059491247,0.13123344,0.23332977,0.17596295,-0.2163687,-0.15309401,0.19326997,0.011813536,-0.5105549,-0.47499472,0.2803875,0.077619195
0.2476269,0.1279039,0.18320155,0.013375351,0.46295473,0.047076527,0.014821082,0.37495553,-0.1777376,-0.07070327,0.2662042,0.10800797
0.13207647,0.1398076,0.2375952,0.1172496,-0.013213933,-0.880391,0.15207928,0.11353451,-0.3140051,-0.59580404,0.20387605,-0.4488907
0.24544206,0.17678179,0.181542,0.05373147,0.72302836,0.4596245,0.24184555,0.31900424,-0.044338465,-0.45290393,0.46843016,0.72074205
0.25351065,0.0932404,0.18580994,0.33879682,0.42455083,-0.78106976,-0.05772215,0.3513596,-0.16591826,-0.814375,0.39307946,0.1919952
0.142906,0.07199417,0.2805137,0.14247574,-0.15108122,-0.93009293,-0.3253756,-0.15959927,-0.21668932,-0.59310156,0.33000737,-0.0569472
0.27407745,0.16985707,0.14247675,0.28688622,0.72294545,-0.29635078,0.23073655,0.44822788,0.02032417,-1.0473132,0.42596573,0.72104067
0.19628255,0.07995622,0.29845333,0.04023109,0.036336955,-0.5671009,-0.23496112,-0.16837701,0.05474758,-0.1919483,0.16126543,-0.141206
0.24576451,0.06662205,0.18331578,0.29495418,0.21727471,-1.6453546,-0.18268493,0.39295363,-0.23023236,-1.1454592,0.26659524,-0.26479927
0.34913188,0.06936332,0.0902877,0.51387274,0.6942208,-1.8793777,-0.10576743,0.5788714,0.13345313,-1.3343271,0.32251346,-0.13053614
0.29138595,0.1061979,0.17464516,0.35925728,0.67348754,-0.7134063,-0.0069685876,0.33320403,-0.00055104494,-0.6546413,0.4602756,0.124599695
0.2713037,0.0058268104,0.25389102,0.22337952,0.33791658,-1.0067346,-0.4470171,0.036310285,0.07312733,-0.15632582,0.29424518,-0.36258417
0.14353184,0.115193546,0.29665166,0.14051689,-0.16047381,-1.7924371,-0.009322315,-0.18217951,-0.013820291,-1.3260875,0.14453262,-0.48213112
0.34009665,0.092969686,0.10949513,0.18746218,0.8842864,0.26401034,-0.087091714,0.534104,0.05446714,-0.16446185,0.31293333,0.6209418
0.2610303,0.04478408,0.20063639,0.23960078,0.3877979,-0.13583815,-0.2963937,0.2959174,-0.18243933,-0.30082095,0.34305167,0.51452965
0.27773783,0.02758117,0.14759962,0.2810806,0.38796857,-1.3391467,-0.33739665,0.5467636,-0.25284418,-0.6160023,0.20403168,-0.31244624
0.28204006,0.14929387,0.19877388,0.007278653,0.49487847,0.3820477,0.09399104,0.24302477,0.134664,-0.4189204,0.12558365,0.71870035
0.098214075,0.112762265,0.2575908,-0.06191315,-0.15764461,-0.11397317,-0.16756538,-0.1280565,-0.42243403,0.090592265,0.3860819,-0.022640288
0.17005675,0.14893693,0.20860776,0.059156213,0.20421016,-0.10677337,0.1612382,0.2803107,-0.31837866,-0.37491715,0.24746636,0.11123848
0.2170657,0.17536403,0.22432776,-0.084907964,0.4595388,0.48010626,0.21911198,0.17122114,-0.027799308,-0.069928765,0.32359073,0.31270963
0.16896623,0.0932166,0.28839564,-0.00600114,-0.07871002,-0.121725366,-0.19903684,-0.1370573,-0.06807661,-0.076425195,0.12715802,0.15297884
0.071828835,0.120649174,0.2529589,0.03801282,-0.23605157,-0.092304826,-0.028312832,-0.12789837,-0.4545856,-0.12736976,0.34998885,0.046077847
0.23886678,0.07695321,0.2067897,0.16711792,0.3485431,-0.11307473,-0.18526495,0.2761578,-0.22766888,-0.27705562,0.33819696,0.38100863
0.21775772,0.103120185,0.24632463,0.09574095,0.1285361,-0.4810748,-0.079286665,0.097138375,-0.0677551,-0.67113787,0.13606644,0.27676213
0.11196505,0.13064548,0.26301017,0.058271423,-0.23252252,-0.82391465,0.06749654,-0.04696478,-0.25311697,-0.5706895,0.075970046,-0.33370644
0.24065872,0.15084805,0.20564342,0.0035211889,0.5552523,-0.42672276,0.118879795,0.24818319,-0.07783955,-0.17451656,0.38675836,-0.3641793
0.18196082,0.074711636,0.20995118,0.12072576,0.17346385,-0.42447862,-0.2736733,0.23795137,-0.4733033,-0.15920722,0.44025677,0.010737836
0.14910589,0.15808979,0.23579141,0.13043413,0.09798477,-0.57298476,0.252151,0.1437462,-0.20951226,-0.86683625,0.19774076,0.04314077
0.20092691,0.12551168,0.19934416,0.31176817,0.28605953,-0.47210947,0.099019885,0.30991876,-0.25705293,-1.0062959,0.38939384,0.48925894
0.14231703,0.13543928,0.2568559,0.1888457,0.09755079,-0.76013654,0.14939803,0.01551564,-0.2080439,-0.6646422,0.32894763,-0.2551697
0.26093295,0.05714649,0.1577185,0.5080403,0.38693538,-1.5221027,-0.1736171,0.47762644,-0.25011846,-0.9772138,0.4742344,-0.22314477
0.17327257,0.11652768,0.29901242,0.07178002,-0.0049202153,-0.1438368,-0.025099397,-0.17067012,0.06267375,-0.6025379,0.12706468,0.47973734
0.23062956,0.15898491,0.25407073,-0.02606443,0.2855453,-0.323486,0.1433081,0.03921351,0.14769852,-0.15478337,0.10057574,-0.31429633
0.2577802,0.045529764,0.22694668,0.21323602,0.3499009,-0.60010326,-0.30046767,0.17086565,-0.09272659,-0.27499795,0.33172488,0.016768694
0.21862076,0.10822656,0.2030232,0.008023445,0.093316674,-0.1763717,-0.08007765,0.31675845,-0.22755519,-0.113770366,0.004484318,0.017873704
0.28411135,0.17910367,0.13584441,-0.081939906,0.5631158,-1.2707689,0.18608463,0.4887439,0.05749458,-0.96240485,0.037480757,-0.5095191
0.16184667,0.12017578,0.19032627,-0.062149752,-0.13065627,-0.71094435,-0.05474627,0.37401533,-0.46162578,-0.8646276,-0.071505755,0.21488488
0.16991577,0.08354587,0.28233624,0.45303896,-0.045548648,-0.99681437,-0.08389419,-0.12663919,-0.025983572,-1.2875764,0.47547466,0.32876444
0.18139149,0.12930492,0.21056196,-0.030597957,-0.060152315,-0.35603184,0.010575533,0.27898204,-0.28340214,-0.5126795,-0.06359229,0.1470617
0.1936954,0.04103435,0.18231183,0.17530447,-0.06264377,-1.8489734,-0.40276983,0.4151957,-0.49710765,-1.1129265,0.20736477,-0.3464192
0.3013629,0.022296794,0.21719691,0.39995927,0.5588821,-1.301252,-0.32053435,0.15727073,0.07825655,-0.34400928,0.44854695,-0.50183815
0.11303804,0.11219432,0.25437054,-0.041239526,-0.23859288,-0.0076613626,-0.13067156,-0.05168885,-0.36936477,0.05003953,0.17937094,0.079800725
0.21188165,0.11769493,0.26167208,0.21585123,0.3164276,-0.28294852,0.026927352,0.0023881346,-0.0010600686,-0.60809,0.37989214,0.33292937
0.3431021,-0.020722743,0.11821548,0.4569833,0.72898984,-0.6891797,-0.42943135,0.5286636,0.012809217,-0.07492542,0.2966064,-0.001352787
0.15815045,0.097022794,0.1879299,0.32302335,-0.08314678,-1.567243,-0.051705956,0.366457,-0.4883805,-1.4194475,0.3298601,-0.12969902
0.108489186,0.074129604,0.23481877,0.11768899,-0.24307255,-0.9789991,-0.4280111,-0.06119421,-0.5556267,-0.45368224,0.48308194,-0.17593461
0.1152119,0.1278181,0.26235425,-0.015389734,-0.3071293,-1.0645669,0.011003405,-0.048692003,-0.24903983,-1.0955966,-0.020238228,0.02510935
0.22690661,0.049994674,0.21554007,0.030502383,0.033137765,-1.605173,-0.34759098,0.25485325,-0.23058686,-0.7880164,0.024506435,-0.46884936
0.26618242,0.19611816,0.120211795,-0.1708502,0.5100604,-0.8000717,0.24015445,0.57343316,-0.0083447695,-0.7471206,-0.04120798,-0.34584346
0.1948277,0.1689309,0.23871227,0.10154692,0.40636396,-0.6791507,0.25968212,0.11120093,-0.03797424,-0.5831268,0.35518277,-0.32748744
0.2673312,0.13887742,0.18867697,0.0043778857,0.6036405,-0.053068902,0.058273315,0.30910873,-0.044967473,-0.11000764,0.34044084,0.005158484
0.2991586,0.053124875,0.15122487,0.14818008,0.5352681,0.33293495,-0.2504679,0.4908877,-0.13148233,0.017624259,0.19408393,0.60584575
0.12614949,0.15270658,0.2577409,0.034189094,-0.15048635,-0.63561827,0.19640708,0.021709472,-0.18020281,-0.7412916,0.005761154,-0.0936203
0.35727167,0.05815789,0.10188235,0.19750153,0.8522435,-0.20319337,-0.19614294,0.5458016,0.10565543,0.09248316,0.21839818,-0.016750038
0.25506982,0.059386555,0.17682867,0.20044054,0.35292807,-1.1468633,-0.24371968,0.42358154,-0.26743448,-0.39795184,0.2553885,-0.46147537
0.2515815,0.14487864,0.13154137,0.15817843,0.47798353,-1.4777442,0.12264758,0.59837425,-0.19961005,-1.2515501,0.20694616,-0.27012095
0.18301238,0.07970821,0.220443,0.0078086024,-0.052971415,0.19860184,-0.2598685,0.21074072,-0.3658455,-0.19742417,0.107990585,0.65404683
0.2479067,0.0101403,0.17856248,0.41827163,0.06689243,-2.0332687,-0.3880232,0.4103554,-0.24505386,-1.394706,0.36328784,-0.20629999
0.14432865,0.16559526,0.1941617,-0.0032828387,0.028973863,0.104770936,0.24772441,0.36407632,-0.38026792,-0.08680248,0.045256056,-0.056230336
0.20502287,0.16395652,0.20889853,-0.007534525,0.553449,0.34907004,0.20392442,0.24068913,-0.18281037,-0.21175265,0.49678648,0.35786688
0.28501388,0.09252619,0.13752477,0.31197858,0.6358115,-0.7380383,-0.07066676,0.5371035,-0.17569754,-0.5986973,0.3711854,0.074521065
0.107950434,0.12251155,0.22234331,-0.013972153,-0.19367702,-0.36717063,-0.031797737,0.12076774,-0.5157195,0.03798616,0.20106521,-0.3704991
0.22372495,0.066751696,0.20361683,-0.0013153839,0.019974181,-0.7897536,-0.2792377,0.31632394,-0.26592678,-0.21133053,-0.032276437,-0.2993691
0.13815983,0.08693074,0.2851631,-0.02274953,-0.26786435,-1.2852272,-0.28293812,-0.1732037,-0.16691607,-0.60584176,0.092900716,-0.40241355
0.35207686,0.005009031,0.103670835,0.41502714,0.655421,-1.5758456,-0.3296916,0.5655967,0.08477998,-0.8003076,0.14702997,-0.26667416
0.18961525,0.042256396,0.20882452,0.118104756,-0.07512123,-1.4628141,-0.42473245,0.2667184,-0.42280668,-0.79924464,0.19370231,-0.2541155
0.12680899,0.12637468,0.22978677,0.010047547,-0.2323129,-0.44758305,0.011225283,0.13195235,-0.38534772,-0.33032382,0.022177048,-0.13057199
0.20275009,0.13149771,0.25186247,0.13806859,0.19367269,-0.87846595,0.07501912,0.0649969,-0.03734994,-0.76645005,0.21666542,-0.17151397
0.18429974,0.09282936,0.18062925,0.1196347,0.0650614,-0.20018508,-0.1451717,0.42913014,-0.49383518,-0.6406356,0.18243581,0.58598953
0.2503887,0.016100265,0.21756525,0.210104,0.30384442,-0.49344036,-0.44427612,0.22351503,-0.19237465,-0.15525746,0.33675557,0.13919735
0.19350298,0.11773803,0.2375206,0.4193479,0.22710271,-1.5852153,0.0944044,0.1089257,-0.11982879,-1.1297638,0.478225,-0.5037311
0.24200949,0.069864474,0.18559068,0.36338097,0.25901154,-1.1684097,-0.15484053,0.37368172,-0.23765588,-1.0286231,0.35777465,0.08413291
0.18009965,0.16746606,0.23713878,0.063309155,0.36195537,-0.6911222,0.25770056,0.12535444,-0.11383417,-0.4359342,0.3567362,-0.50042266
0.19751187,0.10222811,0.21998039,-0.026205184,-0.030619748,-0.8274443,-0.12906504,0.23041499,-0.25541118,-1.19285,-0.023706902,0.4951473
0.25171074,0.062132344,0.22356194,0.35025278,0.30755165,-1.0936806,-0.19040185,0.17932263,-0.07818943,-0.7795601,0.38473442,-0.054924816
0.09178266,0.09645133,0.2526718,0.15743606,-0.20968327,-0.12773365,-0.20573592,-0.13499393,-0.45891333,-0.45110726,0.45768768,0.45412517
0.13662934,0.050301723,0.22771803,0.34536982,-0.33016583,-1.5080574,-0.39248627,0.06784734,-0.45745867,-1.1773247,0.47198176,-0.08237076
0.21116987,0.12738097,0.28004646,-0.00288126,0.09524727,-0.44068697,0.008745551,-0.06653998,0.122537315,0.05182028,0.039324425,-0.5014472
0.31695974,0.17735271,0.105718,-0.089478865,0.8026282,-0.18350135,0.16869396,0.52509135,0.14941424,-0.4304316,0.14318088,0.061720848
0.22596523,0.09295364,0.262176,0.22092971,0.14537491,-1.2585065,-0.0881941,0.012072742,0.043204546,-1.0753939,0.23309886,-0.07306194
0.29856613,0.006800118,0.17385256,0.2278769,0.39334756,-0.84541976,-0.40058658,0.39617622,-0.071989894,-0.32879543,0.1325455,-0.06336194
0.3110772,0.07325993,0.11463173,0.3218115,0.7693569,-1.1789824,-0.14526796,0.5965421,-0.13566968,-0.3472618,0.3732883,-0.5237575
0.16869636,0.14712588,0.28693953,-0.021224648,0.21808846,-0.18492267,0.124727845,-0.11747125,0.008727193,-0.019745946,0.32781523,-0.29258063
0.3004782,0.040043183,0.20601778,0.30885336,0.48286632,-0.57717216,-0.26208425,0.22319767,0.05788189,-0.4870329,0.30316073,0.26918924
0.24722326,0.022418994,0.18872854,0.11687712,0.23358339,-0.7916314,-0.43776214,0.3820485,-0.2964989,-0.02654326,0.17518494,-0.31339765
0.036028467,0.13323478,0.26169074,0.14165442,-0.12925735,0.6989855,0.26729697,-0.17383625,-0.4182223,-0.23924136,0.44024944,0.63141817
0.2509685,0.10357814,0.22058019,0.023060774,0.21120504,-0.22305797,-0.08760321,0.2121186,-0.030600905,-0.1325872,0.031157888,-4.762411e-05
0.31404397,0.0886879,0.16023354,0.11829871,0.72474164,0.0905828,-0.11700246,0.39103818,0.005626738,-0.03144574,0.33602902,0.28614342
0.28502893,0.060847566,0.22822917,0.11173449,0.37875625,-0.84785587,-0.23051077,0.14878747,0.07939774,-0.09902561,0.16642147,-0.49497342
0.10602731,0.13795474,0.26081324,0.037729315,-0.28042614,-1.7433978,0.11317742,-0.034260184,-0.24927276,-1.4277492,0.0048073977,-0.4348309
0.28590453,0.06266835,0.17865847,0.036614183,0.29906115,-1.3059682,-0.23532349,0.38999677,-0.068258524,-0.99647754,-0.041314866,-0.07426962
0.29861224,0.036302455,0.1823638,0.46935996,0.58696425,-0.98949635,-0.2578286,0.31440455,-0.046646178,-0.49540716,0.48812324,-0.059148073
0.2830308,0.05844272,0.1476894,0.44128865,0.35250247,-1.3275042,-0.16399807,0.50598234,-0.13570538,-1.363125,0.35388446,0.3454401
0.24624783,0.07826942,0.19479533,0.18249181,0.3197787,-0.9165195,-0.16612405,0.33682662,-0.21606168,-0.48535043,0.2555521,-0.22823843
0.13554142,0.15146172,0.20485115,0.025426958,0.16794237,0.44576478,0.19858193,0.2822755,-0.4539242,-0.17529273,0.33629826,0.41959405
0.14281048,0.05141076,0.25524452,0.23777483,-0.30722088,-1.7789439,-0.4148733,-0.049049288,-0.3226084,-1.1091245,0.37431946,-0.35466534
0.15541154,0.053793434,0.25986263,0.21407722,-0.090448745,-1.0169771,-0.40594622,-0.057597965,-0.3151613,-0.5750606,0.43672746,-0.089660615
0.22409333,0.17890859,0.23575349,0.06919571,0.43957183,-0.9314741,0.2628274,0.10725424,0.10850304,-0.72688717,0.2602186,-0.4329151
0.19352822,0.14292386,0.24405569,0.12698938,0.41095662,-0.46673435,0.13978803,0.081205964,-0.116515905,-0.3932705,0.46147633,-0.18991768
0.22419223,0.09645431,0.15038757,0.36049807,0.28954244,-0.6296643,-0.036688447,0.559107,-0.37546492,-1.1955371,0.359537,0.68701106
0.27495477,0.04212775,0.18610777,0.24738596,0.46947172,-0.25474745,-0.29607788,0.3524748,-0.17316484,-0.2260412,0.3501086,0.3340577
0.23604491,0.046691373,0.28731486,0.1488214,0.12838374,-0.7713354,-0.32262242,-0.10705841,0.12799239,-0.59058595,0.17850414,0.15250081
0.30806807,0.065034434,0.14626092,0.19452688,0.55368966,-0.28272292,-0.18768296,0.48781937,-0.06447804,-0.38587534,0.16931987,0.360232
0.09825203,0.09412676,0.24614856,-0.05452343,-0.20666261,-0.22487694,-0.3779425,-0.14189062,-0.5205991,-0.06000471,0.45114356,0.20995152
0.17664814,0.14902167,0.2889843,-0.027199076,-0.02374255,-0.21867234,0.11747134,-0.11006963,0.11066365,-0.95701915,-0.036440935,0.62118953
0.081021905,0.12585841,0.27441278,0.08081523,-0.37829298,-0.3817254,0.04853165,-0.16381735,-0.25465164,-1.0075313,0.06748205,0.5497213
0.23226333,0.051425613,0.27050087,0.31717423,0.08584395,-0.7030043,-0.2516775,-0.03465253,0.0679788,-1.1391393,0.3129113,0.70633036
0.15263294,0.14294517,0.28191835,0.0045153303,-0.06555955,-0.33103803,0.108560264,-0.086654894,-0.027770579,0.05367899,0.04883319,-0.4932755
0.25058007,0.06268237,0.22398373,0.2207903,0.42116126,-0.061218634,-0.233989,0.17766282,-0.13378233,-0.24147439,0.42972296,0.4639234
0.26012105,0.06359345,0.17600754,0.08813579,0.29558435,-0.24718842,-0.24459116,0.43224972,-0.22926205,-0.10617101,0.10548145,0.11784911
0.19645068,0.100143485,0.16203898,-0.0107619455,0.05296499,-2.0373068,-0.13981855,0.54128754,-0.48673317,-1.3737425,-0.018376343,-0.52452266
0.16019027,0.10758417,0.1816522,0.17780575,-0.030239724,-1.5038857,-0.041285813,0.41604352,-0.51927716,-1.1547899,0.19572055,-0.31976542
0.052550837,0.12051329,0.27065682,0.41178718,-0.2931402,-0.5778606,0.22476012,-0.18305811,-0.2832099,-1.3589178,0.32172742,0.41995412
0.2197117,0.084581286,0.17529306,0.069579564,0.25127408,-0.5413289,-0.1879791,0.45562947,-0.41059792,-0.092142224,0.21566033,-0.2519664
0.24271724,0.1733724,0.19692102,-0.045777608,0.3441776,-0.6977999,0.19149601,0.29217532,0.021246016,-0.58671737,0.039622486,-0.30706084
0.186413,0.11625185,0.2945433,0.11830543,0.009438439,-1.6051426,-0.008925974,-0.14222425,0.100117385,-1.1535307,0.12936443,-0.4446193
0.30800092,0.010401286,0.18499482,0.20420332,0.45894563,-0.41225198,-0.38481238,0.32780218,0.004318893,-0.013279319,0.16724113,0.034074783
0.17276236,0.11402922,0.16240093,-0.061977927,-0.045754824,-0.4781379,-0.089737505,0.5375474,-0.5451718,-0.9233861,-0.072181515,0.5366239
0.16250633,0.12482472,0.20180495,0.17210005,0.07249117,-1.1895242,0.06336057,0.31060997,-0.4063853,-0.84556353,0.23609713,-0.40954006
0.12317899,0.08950014,0.22039378,-0.19155653,-0.42310968,-0.7608509,-0.35445082,0.09369624,-0.51096463,-0.4292426,-0.04879231,0.06842351
0.2713542,0.14218393,0.19071576,0.02501316,0.38748008,-1.4666375,0.07234079,0.30639124,0.049316645,-1.0431856,0.058373056,-0.4817924
0.2941054,0.20091148,0.13693154,-0.19282101,0.88098866,0.77414775,0.25391537,0.4062072,0.14180303,-0.22037208,0.35375,0.6725876
0.17823236,0.06670479,0.2852395,0.1348051,-0.16994743,-1.6951152,-0.28614312,-0.11929641,-0.04821688,-1.3473753,0.18024296,-0.08786753
0.16690311,0.12954831,0.16953063,-0.0062159956,0.33284855,-0.40132794,0.025544822,0.46589053,-0.58572894,-0.005652666,0.4527403,-0.4224183
0.086710565,0.12244942,0.26409364,-0.09823716,-0.48203164,-1.4706262,-0.075885415,-0.13795768,-0.30549252,-0.8510746,-0.06854969,-0.50781727
0.10964972,0.09619738,0.24310149,-0.099953696,-0.18921885,-0.7745228,-0.34031606,-0.076093234,-0.5042534,0.0819999,0.36979228,-0.4980475
0.21640705,0.06645789,0.2446712,-0.03003117,-0.06509515,0.08962846,-0.29247576,0.10748398,-0.11520219,-0.15586793,-0.06404502,0.5389884
0.1600722,0.14778398,0.24044032,0.12374334,0.04692098,-1.2689435,0.17766523,0.122932166,-0.18032953,-1.0112276,0.15357408,-0.43621308
0.29576653,0.043089196,0.19349834,0.48399967,0.34813097,-1.2744117,-0.20586874,0.270216,0.057893753,-1.2163763,0.39216673,0.29695886
0.10554752,0.106234476,0.2289401,0.018267363,-0.1551011,-0.33383504,-0.170535,0.031083658,-0.55003935,-0.12149,0.37157017,-0.05475229
0.14164793,0.14398628,0.25803855,0.13137116,0.18168461,-0.52434283,0.18644708,0.008413628,-0.20312953,-0.4407239,0.384714,-0.2740365
0.29285315,0.15252966,0.1454032,0.074725226,0.57343334,-0.9945649,0.116555154,0.45359355,0.055832207,-1.1538873,0.13755766,0.0978452
0.17659174,0.11301796,0.23989353,0.38378042,0.038703267,-0.8627364,0.06377715,0.105273515,-0.16283569,-1.3916821,0.3919208,0.46145356
0.20930333,0.08872182,0.2967305,0.12666178,0.24783932,-0.72979987,-0.1558567,-0.1667634,0.08741337,-0.24137664,0.35416448,-0.32014197
0.23748024,0.05073902,0.18366444,0.35992497,0.17475474,-1.8495662,-0.24443182,0.39241737,-0.28295588,-1.098463,0.33699986,-0.45813084
0.3287954,0.16180657,0.08891352,-0.062414065,0.8036509,0.028106809,0.11541462,0.58177716,0.1490115,-0.49535137,0.084033705,0.3970238
0.14651088,0.08142456,0.29097947,0.19838989,-0.20202293,-1.385951,-0.21423036,-0.18314223,-0.098718554,-1.0982676,0.2628097,-0.12673292
0.24907504,0.103603676,0.23845322,0.11309397,0.4570762,0.1343227,-0.07081941,0.10471922,-0.013593972,-0.18922186,0.3801026,0.4240247
0.25414446,0.09235895,0.18375343,0.24360384,0.29227945,-1.3688987,-0.07942143,0.37840402,-0.1526325,-1.16231,0.2279455,-0.06719601
0.19393855,0.057738487,0.27477828,0.01583265,-0.014197608,-1.0052632,-0.37108803,-0.061254323,-0.11065206,-0.12101936,0.16560405,-0.5149826
0.21341006,0.11558669,0.245338,0.28053108,0.1682092,-1.0514097,0.03665045,0.08923,-0.025182366,-1.2381897,0.29954103,0.18308711
0.2758343,0.094117396,0.17216846,0.027733758,0.30403027,0.12404671,-0.118138075,0.4218312,-0.09191409,-0.34864306,-0.026378777,0.5935797
0.27999553,0.016959509,0.22688696,0.26604068,0.23281948,-1.4723812,-0.36359677,0.16275501,0.052445114,-1.0079858,0.18676555,-0.052301526
0.25095043,0.11445493,0.1759885,0.11929916,0.32707974,-1.3573167,-0.016503781,0.41814297,-0.16713926,-0.9339321,0.13397506,-0.3734937
0.26234487,-0.0010984708,0.205957,0.4902634,0.23577024,-1.7381616,-0.41502982,0.2538038,-0.12370062,-0.8527811,0.44587123,-0.38865066
0.104483746,0.11208052,0.24028295,0.05031084,-0.069821365,0.21839373,-0.09831381,-0.01739566,-0.49262214,-0.13124216,0.44873196,0.43148917
0.23107447,0.013112366,0.21551138,0.34278753,0.12553643,-1.4261843,-0.43648493,0.23306519,-0.24338704,-0.7565689,0.37163788,-0.21270433
0.19764628,0.13209875,0.1723231,0.24352896,0.2506124,-0.8367727,0.113426685,0.45971543,-0.34576267,-1.1654668,0.28702858,0.26129216
0.2878357,0.18414186,0.12068217,-0.025794562,0.6480649,-1.0548441,0.21498412,0.52938986,0.06576836,-1.1770256,0.117968254,-0.06778675
0.27011776,0.025476083,0.24003333,0.21337458,0.31692094,-0.078495614,-0.36641878,0.10598609,0.021236956,-0.3047241,0.25679675,0.63184506
0.1928456,0.14974755,0.22200873,0.17473376,0.16155483,-0.5824369,0.17976582,0.21236244,-0.12541145,-1.3579779,0.20354047,0.6186493
0.25859776,0.04813783,0.1725481,0.087068714,0.25357568,-0.4832729,-0.31204206,0.45606303,-0.25869903,-0.04397297,0.070489235,-0.11584425
0.13416818,0.13365819,0.27966636,-0.0017765365,-0.22331756,0.11014172,0.053696513,-0.09811336,-0.09645128,-0.44782495,-0.031450856,0.5058003
0.09938388,0.12553878,0.2822559,-0.04485686,-0.41060057,-1.0601176,-0.020017534,-0.17896853,-0.17428374,-0.5163448,-0.067128405,-0.5084645
0.15477677,0.10368781,0.21778843,0.31249064,-0.05964423,-1.6746879,-0.014110982,0.20554689,-0.3752979,-1.2390559,0.33147424,-0.45770475
0.14780961,0.072373845,0.24755622,0.0398669,-0.18977568,-0.24010892,-0.35231906,0.010408714,-0.37079406,-0.4855225,0.21997753,0.57548994
0.24263819,0.045513492,0.23822436,0.0004687919,0.05137654,-0.838149,-0.35256368,0.14021647,-0.063379586,-0.54623824,-0.033296198,0.06000042
0.13520868,0.09507774,0.22515392,3.0921354e-05,-0.28433415,-1.1992978,-0.21393786,0.12782276,-0.45190465,-0.91541463,0.07522812,-0.07966778
0.27394146,0.082273535,0.2326336,0.10174717,0.40840858,0.34139574,-0.15442556,0.13010529,0.060375333,-0.13608956,0.23069894,0.65603584
0.28670526,0.10495558,0.14602962,0.021645118,0.4045765,-0.30327052,-0.07448542,0.5185404,-0.093512475,-0.44134367,-0.022128653,0.21496278
0.078515925,0.12195544,0.2655803,0.02321306,-0.35792035,0.4484775,-0.020749629,-0.15119739,-0.3393675,-0.21533918,0.13615671,0.67319256
0.22598647,0.08655555,0.28022742,0.009419837,0.05187221,-0.13684966,-0.17895049,-0.066308394,0.10945237,-0.0029088259,0.009575881,0.045254648
0.15010022,0.07634686,0.22699732,0.28797355,-0.1636846,-0.5549828,-0.2091323,0.12858021,-0.41048378,-1.0765587,0.35735726,0.6623532
0.09542736,0.13520259,0.25645626,0.1719945,-0.248054,-1.1834277,0.16592532,-0.02327609,-0.28708908,-1.2935885,0.12831679,-0.09653914
