x,y,z,R,P,Y,t1,t2,t3,t4,t5,t6
0.042835772,0.36770666,0.04132946,-1.8120884,-0.5417016,0.64756536,-1.4087068,4.0500946,0.15334892,-7.243903,0.47462964,3.1646717
-0.1650721,0.23544338,0.13626225,1.0362147,0.26605985,3.003716,1.7566183,-0.92824376,-3.4579663,0.5080137,3.3592029,1.8360598
-0.14041275,0.30450407,-0.023087384,2.0085661,-0.38714588,-2.4505696,-0.91633534,2.6360886,-3.6525748,-1.6991034,2.1857934,-2.2148485
-0.118384264,0.08341958,-0.14618559,-3.0394568,0.32959205,0.8087722,0.40105677,3.6628234,-0.8785844,-1.1949778,0.04036492,-0.7265589
-0.27978703,-0.05004163,-0.2651081,1.4196522,-0.9105459,-1.1677064,0.6270814,1.5756574,-3.44738,-3.2132325,-0.3943498,0.591521
0.1297121,-0.088511966,0.0062871203,-3.0751522,0.51185787,1.5601417,-2.701766,2.6537695,-1.9243832,-5.688527,2.8590798,-3.7293618
0.17478848,-0.0490485,0.06777783,-0.09594899,-0.03945073,0.42066678,-1.042978,-1.2618781,-2.2193308,-3.2017846,2.9043174,-1.7338357
0.16149297,0.018665224,0.008929674,0.666796,0.63788474,0.36177307,-0.8353019,2.034871,-1.258801,-8.628543,-0.15196353,3.724704
0.028581914,-0.08222832,0.16253166,-2.0627196,-1.1622975,-0.08065405,-2.842819,-0.7547644,-0.6030507,-1.6034889,2.491737,-2.660702
-0.016045392,0.17430721,-0.35511896,-2.6539073,-0.21651575,-2.4785798,-0.5125971,1.103126,-3.2598784,-9.963297,0.6091875,-2.657559
-0.14580867,-0.2068582,-0.14467579,-3.0572467,0.0005881351,-1.9218533,-2.681587,-0.5950815,-2.7898397,-0.26528454,0.29101652,-1.2057741
-0.009483285,-0.2655499,-0.27490002,2.1276188,0.6381306,-3.0287156,-2.3651297,0.22218776,-3.282079,-4.61607,1.1387174,1.9489539
0.19490072,0.025267053,0.016932538,2.2184827,0.83064353,-0.92236143,-0.5229347,0.8952956,-0.9970517,-0.11223984,2.0909977,1.1454151
0.25752363,0.21318008,0.08196821,0.212239,-0.8964859,-0.6670923,0.28736496,-0.604196,-3.7062285,-0.35877037,3.416359,-1.3564458
-0.076353684,0.21637492,-0.14263578,2.056664,-0.1661275,-1.0815461,1.3434889,1.2561121,-0.049882412,-3.4427204,3.2613015,0.084653854
-0.09841096,0.114736564,-0.065053485,2.9766016,-0.1116115,3.0586534,0.0032794476,1.763978,-1.9832807,-8.957148,2.7719512,3.5205805
0.11009388,0.046935596,0.1521996,1.2679212,0.31381983,1.4301202,-1.1486195,-0.7771822,-0.7956517,-0.31048965,2.8411932,-3.7027028
-0.044127733,0.1885755,-0.20089522,2.9048963,0.50995356,1.9460839,1.305198,1.6741464,-0.33885813,-0.5755062,1.8394235,-0.09966087
0.09133097,-0.32622927,-0.093128085,-0.70796454,0.53035915,0.52307063,-1.7576513,0.800477,0.75460005,-3.6749077,2.2585216,-1.2522147
-0.120833546,0.07280718,0.02110006,0.44537985,-0.58386153,1.9979364,0.51136756,0.9013066,-1.7227769,-3.539258,-0.11305371,-1.4119134
-0.1520332,0.1539222,-0.39157212,-2.4305768,-0.1044514,-2.431337,1.7322748,1.6300335,0.7449417,-9.454132,-0.049319327,-0.7090976
0.08178513,0.30149072,-0.13895807,-3.0372047,-0.5057274,-1.8776344,-1.5269516,3.5937479,0.14488554,-8.544137,0.67183995,2.1257474
-0.16200131,-0.10533657,-0.20458797,-2.9772048,0.11835374,-3.1228063,1.256244,3.4331324,-0.41171074,-8.715502,0.09535146,3.713361
-0.13702059,0.012691151,0.07402998,-1.3429204,-0.3239188,3.0587904,1.9013937,3.197419,-1.831589,-3.258555,0.010940909,4.6731443
-0.043090045,-0.16250266,-0.18897632,2.8370793,-1.2261419,2.1161141,-2.389881,2.1365998,-0.54181814,-1.079793,0.7009144,-2.6467881
-0.18594776,0.22326414,-0.10932129,-2.7598717,-0.08391354,-0.402427,1.8216593,-0.71959794,-2.8168583,-4.313658,-0.011889815,2.5728848
0.00095332135,-0.40943488,0.1310169,1.3531655,-0.18699814,-0.9329653,-1.9020141,-0.8996587,-3.5679295,-6.583109,-0.47905347,0.97661185
0.10664786,0.116950415,-0.22954988,2.0235105,0.36715657,-1.640649,-1.3066114,1.2675626,-2.8472016,-9.721673,2.6912475,2.9183805
0.28887635,0.20803775,-0.25480747,-2.70769,0.050540566,2.3142838,0.18605924,0.9815831,0.7678375,-5.8487425,1.2804346,-0.73273826
-0.26102242,0.039073724,-0.33080757,-2.574763,-0.5990694,-2.8644664,0.5413163,2.7196162,0.4707594,-5.030043,0.7837142,-0.6333251
0.013577503,-0.06473822,0.037948042,-1.1981024,-0.23797746,-2.625401,-2.9524302,-0.34645116,-1.4518175,-1.2300558,1.7108155,0.2329452
-0.16147119,0.09710768,-0.27774253,2.7089982,-1.4287428,-0.8261482,0.29825497,0.9851556,-3.0325656,-5.6630344,0.41470557,2.2042234
-0.14300935,0.10018496,0.05063672,-0.79042387,-0.56592524,2.2624755,1.0390513,3.0291035,-1.5961018,-4.0859556,1.2404134,4.8433437
-0.1341427,0.037972745,-0.32127687,-1.1786265,0.16590245,3.083277,1.1699579,1.265821,-3.6374936,-9.909695,2.6896563,4.3643713
-0.11037305,-0.24135578,-0.11108483,-1.4533011,0.6927147,0.52117765,-2.4446204,1.0196972,0.30941868,-8.924684,2.765647,-0.48794174
0.039599128,0.10325465,-0.088352785,0.3833385,0.26469705,-2.1302938,0.031170845,0.18749976,-2.2753642,-0.5133982,2.291634,3.8695624
-8.703396e-05,0.1376633,-0.09871643,-2.7410436,0.7196464,0.88021743,0.22503948,3.2605011,-1.2526739,-5.8827267,0.36393404,4.081217
-0.32027867,-0.145061,0.012824252,-1.2248318,-0.46473476,2.5598974,-2.9076233,0.64372706,0.36169338,-7.990713,1.1961954,1.9002035
-0.12792644,-0.013411295,0.07509997,1.353041,-0.184224,-2.3879652,1.2440422,3.4167674,-1.8385959,-2.5611472,2.8936224,-0.18084359
0.24467798,0.23605958,0.039114997,1.1954031,-0.45609498,1.6796151,-2.0058641,3.570225,0.84921885,-3.9776893,3.2054815,-0.57093644
-0.109923184,0.08193493,-0.34495035,-0.972426,0.23026566,2.5268123,1.536536,1.8595994,0.8926201,-9.218673,1.7713522,-2.1242537
0.16543879,0.08727023,-0.34249672,-1.1298864,0.92811245,1.7498019,-1.0255599,2.0196948,0.6328583,-4.632259,1.8219076,4.1874323
-0.102263995,-0.31212515,0.041829646,-1.6103503,-0.0055908165,0.8330288,1.6339257,3.6825316,0.76768446,-9.233516,2.8345385,2.5888426
0.03575373,0.16187476,-0.0869148,2.9476275,-0.6944001,-2.5932798,-1.2579192,1.6610744,-2.260324,-8.47837,2.2031403,3.2169926
0.11818418,0.031715002,-0.095792875,-0.59106183,-0.115613945,2.0502427,-1.5482452,2.7269218,-0.78515697,-9.245388,2.5272818,0.60773635
-0.058244035,0.04911776,0.36014876,1.6571548,-0.03780171,2.3640635,0.4898286,-1.1083537,0.7046838,-2.0929375,1.4527045,3.582832
0.07494629,0.080569394,-0.31516913,0.3182247,-0.50107694,2.5131874,-0.30869412,1.7790892,0.81387615,-8.129285,2.704474,0.7755444
-0.08847642,-0.3291313,-0.07679339,2.7709801,-1.0395665,0.14566699,1.8686049,2.2325895,-3.1724188,-4.3474064,1.9189969,1.595938
-0.04765847,0.121329926,0.12871206,0.1402016,0.6159285,-2.635574,-0.03660631,-1.1480935,-0.9433043,-0.22169113,2.7056704,3.5573275
0.018169748,-0.15744694,-0.29597104,-2.7218328,-0.09527916,2.0873995,-2.1852183,0.22193122,-3.0124032,-4.8805327,-0.32158354,1.6772535
0.1352888,-0.12129761,-0.2246162,0.84396917,0.73096985,-1.393074,-2.1813335,0.61561286,-2.8980808,-5.073344,1.9589609,1.8304536
-0.09800145,0.004421428,-0.3824115,-1.6607443,0.50877607,2.423448,1.5064709,1.3764815,-3.975074,-2.6536345,1.9796103,-2.0873952
-0.40639466,0.14315167,-0.13692525,-1.6230911,-1.1754129,2.7249322,0.019250154,2.3466613,-3.8323555,-7.615386,-0.42690757,-0.6206546
-0.11644307,0.04611997,-0.039098296,1.0659078,-0.3570457,3.0440774,1.1641786,2.2679226,-1.1053371,-9.42047,2.2630181,4.8101206
-0.13606754,0.138595,-0.27361953,3.125765,0.110830344,0.7898855,-0.09494352,3.0790584,-0.13246131,-6.3453856,0.08332485,3.897352
0.017202292,-0.36332878,-0.14769931,2.9641113,-0.12958008,0.7141725,-1.8618187,-0.3217132,-3.522472,-6.436991,0.50076425,2.1330144
0.07917075,0.024913313,-0.04180748,-2.790728,-0.80667317,2.1131759,-1.4974225,4.1734085,-1.5279334,-0.89403915,1.1226206,4.2755537
0.18119434,-0.10033853,-0.20434073,0.8823041,-0.15773983,-0.42538658,-0.9506285,0.22729456,-3.1087768,-2.1208115,2.4076052,4.7009954
0.003517514,-0.17390855,-0.22265156,-0.79843426,-0.37334424,1.6751761,-2.0612702,0.3057015,-3.3317358,-0.9156008,2.2110534,-3.2580738
0.04019923,0.1638488,0.11420114,-0.12992246,0.06534436,1.8687652,0.44059372,0.8155401,-0.9761908,-2.8239899,-0.28928566,4.2551517
0.11462413,-0.028580531,-0.014354305,-1.4763125,0.2474298,2.4641552,-1.9520789,-1.0399628,-1.782156,-6.418856,1.345746,-2.1823578
-0.057490665,0.15149754,-0.11995287,2.7858953,0.6418589,-2.3902073,-0.355417,1.5349178,-2.368198,-8.985073,3.0163488,-2.4483259
-0.18249476,0.058339313,-0.022565994,-0.6402999,-1.5082375,0.55485743,0.8230989,4.0259523,-1.2975595,-5.3629365,1.8832699,1.5217512
-0.13506776,0.08004198,-0.10417524,1.6162926,0.2759876,1.2370753,1.74629,1.6234112,-0.5364783,-2.9086838,2.6910877,3.0262392
0.17930721,0.19471288,0.22594385,-0.6093626,-0.89737695,-2.7915165,-2.043915,3.129266,-3.3606331,-7.6756954,1.0598909,0.8132217
0.08161626,0.092580386,0.31868348,0.011834987,-0.076921456,0.53465027,-0.57679343,3.9075892,-2.8960536,-9.365706,1.0703598,4.222707
-0.06088963,0.11139512,-0.00090957806,2.7003527,0.49533153,-2.5762901,-0.100829124,2.3016374,-2.1076949,-6.745291,2.3215609,-0.07460594
-0.31893378,-0.07878488,-0.002486147,0.6535648,-0.75343573,-1.9426848,0.6459198,3.8840716,-0.1852858,-6.225352,1.6322376,3.4613206
0.076162666,0.3817582,-0.013940411,2.1335154,1.3312478,2.163165,1.2108624,0.41651905,0.80847216,-7.6808167,1.4683225,-0.79335284
0.41215336,0.10895217,0.15672764,-0.5722904,0.7201938,-2.912,-2.584036,3.0703533,-3.9018977,-3.2056441,0.05534792,2.6586087
0.22860286,-0.008532632,-0.13960896,1.0596424,-0.04538174,1.1506487,-2.3823733,3.303285,-0.12493181,-3.915885,2.1078444,-0.42416644
0.039075423,0.08338648,-0.13838376,2.5656781,-0.18846884,1.861951,-0.60966015,3.2077358,-1.086798,-0.7199364,0.975337,4.8524084
-0.12564144,0.13279602,-0.048800655,-0.5855192,-1.0090355,-1.7326114,0.18536234,3.4886158,-1.077388,-5.2786045,2.585751,-0.38859987
-0.13584207,-0.0437784,-0.11683399,1.9995733,-0.15567572,1.400227,1.3227823,0.4244436,-1.9911654,0.16792202,-0.43382457,-0.42568064
-0.06552497,-0.17636338,0.110274196,-1.1419878,-0.015839936,-0.86642647,-2.3823595,0.60378015,-0.3635285,-8.657849,1.3102771,-2.2619007
0.14981405,-0.017510653,0.06018565,-0.081607126,0.42427963,0.2518969,-1.6849074,1.2646873,-1.4906902,-1.7821236,-0.42206094,3.7486317
-0.20619947,-0.17836723,-0.20794064,-1.2837915,0.16035444,-0.96715474,1.2340944,2.0798118,-3.8512878,-5.1962924,2.9574342,-1.3631961
0.13316254,-0.076670796,0.20824146,-0.27637675,0.49031729,1.4653003,-1.863475,-0.056105733,-0.6962495,-8.540383,-0.5156481,-0.6159041
-0.010808453,0.12831716,0.07600507,0.30501586,0.28401974,1.5777922,-0.38190246,1.9914813,-1.9437809,-3.6086516,-0.37060508,-0.66685295
-0.05963492,0.16804865,0.43343958,-0.08673216,-0.0021130438,2.0375285,-0.40965343,4.10497,-4.08255,-0.9288988,-0.098308325,-2.907896
0.12386707,0.18425079,-0.25722188,3.0528102,0.084708326,2.1017988,0.4180727,-0.04128611,-2.9745226,0.607255,-0.20308611,5.057729
0.03424214,-0.1034871,-0.06322265,3.0291486,-0.78800267,-0.004681602,-2.5896888,0.7572417,-1.6527371,-8.295068,2.7983623,4.7201853
0.14240906,0.10674933,-0.2072812,0.5526432,0.44607005,2.704124,-1.4922093,2.8234131,0.028411388,-9.933658,2.2034287,0.741976
0.09057886,0.08066939,-0.3551943,-2.7369401,-0.3485314,2.3337536,-1.1961626,0.87208223,-3.196085,-5.750226,-0.3672455,-2.5327404
0.17103118,0.021196682,-0.39069733,2.5727577,0.5161919,-0.029119173,-0.6538174,1.8604074,0.5746603,-8.352694,0.081682265,4.3474665
0.10623652,-0.09888518,-0.015413005,2.1994452,-0.17908353,2.7389805,-1.7971846,3.9807289,-1.6783864,-0.04428959,-0.11457834,4.2213945
-0.14442413,0.06468913,-0.074597225,0.7555348,-0.15148497,1.7938093,1.6541841,-0.35062563,-2.3888865,-6.055238,1.985334,0.25416827
0.103358746,-0.05388556,0.055185743,-0.047183584,-0.17064561,-2.17827,-1.8506117,1.8243992,-1.4126453,0.42218494,-0.4441045,-0.7087648
-0.049044292,-0.16628724,-0.19481763,1.5011955,-1.0988075,0.7358737,-2.6612582,2.3328354,-0.47564626,-3.1117883,0.31815052,-0.80151534
0.113628656,-0.028522547,0.15381001,1.954784,-0.54542667,0.5624257,-1.9849857,-0.9145979,-0.552639,-5.670809,3.4162793,2.5745146
0.08931386,-0.03785246,-0.17018884,0.41316903,-0.79850596,2.002844,-2.120913,0.8116646,-2.660459,-7.088298,2.4420605,3.4724867
0.12855838,0.19294222,0.2645643,2.9562547,0.112900436,-2.8163538,0.47995043,-0.68235123,0.94153786,-10.104782,3.489603,-2.9986072
0.0842316,-0.098721236,-0.14455509,1.098814,-0.51563317,0.84087205,-2.0454926,0.48194396,-2.3942003,-0.9038334,3.0339656,1.720751
0.024770048,-0.06862512,0.078319184,-0.9638776,-0.19571,-2.3143444,-2.8523815,3.2105205,-1.7429638,-8.44958,1.5563136,-2.5633802
-0.036283698,0.06625433,-0.12862165,1.1573751,-0.13724346,1.2826891,0.06557965,2.8765833,-0.74903274,-1.8265123,1.9569947,4.9458733
-0.20530412,0.18737148,-0.048968747,0.6139749,1.0163035,0.65303296,-0.28498936,2.2181976,-3.3146374,-0.065457344,2.2206721,1.2807443
-0.10768695,-0.21261354,-0.3837853,3.0924723,-0.5573468,1.1770337,1.8297765,1.7008989,-3.916703,-10.042571,1.1223704,3.3512409
0.32177648,0.15882769,-0.17229566,1.0718566,0.75398564,-2.1319935,0.24692106,0.14030278,-3.8585904,-8.517063,1.5865635,1.7470324
0.03689369,-0.1244171,-0.13792406,-1.852027,1.3679695,-2.8567088,-2.8781495,2.352007,-0.7911072,-8.447715,3.2239914,-3.7239466
-0.10380617,0.105527386,0.35644692,0.9285913,0.36867326,-2.6318772,1.5792019,-0.6192224,0.6017332,-8.978527,0.96216345,-1.3334782
0.13855559,0.021812811,0.21307757,-1.5041443,0.06588645,0.19513007,-1.4002907,4.003537,-2.6657484,-10.105631,2.7610068,4.251045
0.11647204,-0.023829699,-0.11238897,-2.6946287,-0.048207503,1.2749475,-1.7074893,-0.39993274,-1.8534617,-2.9003992,0.46246642,-0.63643694
0.14169464,-0.19230872,-0.15513569,0.8001892,-0.21317537,-3.1163504,-1.3863811,-0.013984323,-2.9433668,-2.5625887,2.479105,1.9359095
0.019841403,-0.2143127,0.083310224,1.5533049,-1.007121,-0.12645485,-1.883189,0.63231385,-0.6665416,-6.978066,1.5877444,1.4372132
-0.3213705,-0.22346677,0.1004073,0.05115468,-0.03951116,1.1515676,-2.8666975,0.33541286,0.7378292,-3.186685,1.0217465,0.8982065
0.18415925,-0.064085014,-0.25947216,-2.5794094,0.22120464,-2.7164373,-2.9656816,3.0896657,-0.16942978,-7.061091,0.7408035,-1.7572596
0.034953833,0.10260626,-0.2484093,-2.8802626,-0.93308866,2.586822,-0.88092613,2.6715906,-0.43159318,-0.5548649,1.7085563,4.8775835
-0.080651775,0.07531024,0.057109993,0.03816852,0.28723592,-1.9496411,0.94911456,-0.9922836,-1.565314,-0.5444393,2.634324,2.9211442
-0.11341716,0.15890604,-0.112451866,2.1431289,1.3838291,0.45173797,1.8360627,1.426445,-0.3030262,-1.665205,1.9951686,3.7116258
0.0506502,0.12595156,0.31204182,-3.0924652,0.23801014,-2.4573252,-0.0808084,-1.1027308,0.8108592,-3.996542,3.0532131,2.9057438
0.018840894,0.15882054,-0.16390562,-1.762286,-0.9844005,-0.19990472,-1.0314453,0.8541169,-2.4057608,-1.8447027,0.46964306,3.3557327
0.016105467,0.19264193,-0.3534527,-1.1194173,0.30310723,1.3581284,-0.4121616,2.0548012,0.9445791,-4.7243333,2.0065765,-3.0540519
-0.0077003315,-0.14943796,-0.039318297,-1.7595899,0.40506953,-1.3458294,-2.370064,1.3078389,-0.66910934,-2.6072965,2.3214889,3.604719
0.13388224,-0.10141646,0.13254225,2.4538891,-0.11239192,1.4789691,-1.3639954,-0.06285429,-0.4921546,-7.4564285,2.8790684,2.0532615
0.05346621,0.0678296,-0.19975072,-0.030063396,-0.97854954,-1.5996311,-1.0144808,0.61906123,-2.765665,-0.7722006,1.4951166,-0.7807081
-0.12949143,0.056070756,0.054978997,0.1241499,-0.27681336,-2.1650233,0.81994224,1.455168,-1.6821592,-1.1594181,-0.12968886,4.453931
0.27594346,-0.119954854,-0.19536158,2.209158,-0.120538,0.9517342,-0.6837759,-0.17499399,-3.2454667,-8.176259,0.82073903,-1.0378289
-0.21116301,-0.13157429,-0.18752939,-0.642815,-1.3080955,2.2491386,1.4108536,1.3735037,-2.912672,-4.921669,1.5641099,1.3070734
0.19709222,0.11920766,0.24485882,-2.7625237,-0.9696648,-1.7601162,-0.07952452,-1.2999785,-3.7909145,-2.4652267,3.3722706,4.8258286
0.14736187,-0.032001838,-0.30181158,0.0161542,-0.3342412,0.27885932,-1.0054643,0.89636445,-3.9470277,-0.85513496,2.754066,0.43985915
-0.12621778,0.30886146,-0.0723874,-3.127573,0.24862404,-1.7913579,-0.7604115,2.4234116,-3.3066082,-9.697439,2.4123054,3.5432584
0.19650698,0.056232404,0.13855383,-0.6926092,0.90027297,2.9703698,-1.9432366,-0.99026304,-0.8500638,-5.5386333,1.042899,-1.823909
-0.24036331,-0.1432394,0.11790014,-1.0916252,0.26265416,0.6843703,1.0531743,2.7366912,-3.281622,-6.0829372,1.642722,-0.6369281
0.06064533,0.08758731,0.06977955,0.317564,-0.08219598,0.3426917,-0.45758605,4.0476685,-1.6064289,-2.695138,2.3223786,-2.0276833
0.041614573,0.13053483,-0.39045095,2.6967254,0.07561813,2.5889115,-0.9149494,2.4095247,0.52988625,-8.628693,0.28629673,0.8396547
0.0701058,-0.35060653,-0.043233205,2.390483,0.7247131,-2.886582,-1.886464,0.7921455,0.08382988,-5.3623357,1.7065784,4.7655153
-0.20653415,-0.040033787,0.20566478,1.981716,-0.37960422,1.8411051,0.67562175,3.3237765,-2.955343,-2.5419044,2.2679548,3.4724991
-0.07162195,-0.16423449,0.26981077,-3.1380136,0.09200663,1.0831442,1.891875,3.8426545,-3.6871574,-10.02538,3.2984915,2.381469
0.061566707,0.1259513,-0.3958592,3.0492637,-0.20821893,-0.5880153,0.07869482,0.76253366,-3.55484,-8.919257,0.15273422,-0.9922645
-0.016229406,0.16996606,0.3059008,2.9481375,-0.20898171,-2.2103472,0.8271229,-0.9378609,1.0338821,-0.13588715,3.329976,1.641597
-0.10805904,0.07301241,0.078426555,-0.57165116,0.31305715,-1.0175781,0.9077847,2.2354608,-1.799907,-5.931764,0.2169218,3.8967378
-0.08666878,0.07037394,-0.09913337,-3.073457,0.49212644,-0.8375622,0.68575096,3.8223398,-1.2120345,-1.2028551,0.27433378,-2.142552
0.048625335,0.110984236,-0.3616985,2.9370403,0.11002533,1.0578083,-0.040776253,2.1828582,0.14351797,-6.5877504,0.7178787,4.367779
0.19535853,-0.097098455,0.26168,-2.262441,-0.6494789,0.6404761,-1.0091741,-1.2555629,-3.936298,-4.386465,3.3383617,-1.8163058
-0.0635004,0.08868687,0.31794858,2.3724844,-0.62678766,2.9777603,0.03970456,-1.1241705,0.5969672,-2.5588336,1.7689017,3.6563365
-0.10684077,-0.12786625,-0.34059736,0.85784096,0.042570557,-0.3447961,1.8109848,1.3818805,-4.0278726,0.14243507,1.7935897,-2.0416777
-0.036103845,0.2103906,0.21328783,-2.289671,0.48948777,-2.5883179,1.1774223,-0.28663695,0.0010523796,-0.2919817,2.4674773,1.6339242
-0.09832503,0.12664849,-0.17750232,-0.2200677,-0.5620617,0.3189514,0.19902372,0.78548956,-2.755385,0.29293728,1.4436247,0.22510314
0.18953879,-0.0973378,-0.21002907,-1.2538155,0.5606531,1.4847561,-1.3834451,1.7036159,0.031179905,-4.4963846,2.3824306,-1.4416072
-0.24475451,-0.054946918,0.21483977,-0.100926474,-0.33953586,-2.636353,0.83792114,2.9027727,-2.8515465,-7.2825413,-0.3788591,3.817341
-0.09873081,0.29156888,0.00062805414,-0.7829601,-0.14500453,2.4616232,-0.7261996,1.999671,-2.76622,-4.886346,0.44721544,2.028261
-0.27914804,-0.22414392,-0.23464216,-3.1265242,-0.49334294,-2.598145,-2.789862,0.032345414,-3.6964035,-1.2510071,0.18606597,-1.0461824
-0.11349112,0.20359832,-0.018564476,-0.5989325,-0.9668691,-1.5303345,-0.5421386,1.6426284,-2.312922,-2.7739162,0.43188435,2.047981
-0.11196569,-0.098149076,-0.32121402,-1.0049008,-0.116769314,-0.45929462,1.7162097,1.5676308,-3.9425523,0.025831223,3.3842077,4.2003975
0.18767883,-0.18526074,-0.25979653,0.45429793,-0.3058075,-1.5262146,-1.1564027,1.2410622,1.0117431,-2.6504426,1.9143907,2.948784
0.021057941,0.12902084,0.09604534,-2.550427,1.2844024,-3.0335724,0.3666513,-0.2262007,-0.97848487,-1.0169306,2.9079475,-0.23747683
-0.1526685,0.13884236,0.040908094,-0.17389454,-0.4434424,2.6373644,1.5709803,1.3670378,-0.8816078,-4.1393976,0.5358467,5.1350174
0.15485696,-0.07379852,0.10597463,-1.8491584,0.631159,0.3633411,-3.1217182,-1.1837944,-0.689682,-1.6117258,0.871084,3.1282694
0.13512856,-0.0013072565,0.26589763,0.61689913,0.22959973,-1.00473,-1.3328433,3.6763027,-2.6494126,-0.2353611,-0.3887634,0.5901978
-0.16252172,0.001972165,0.03563995,-1.3844402,-0.015880419,-1.7398484,1.1721909,2.070191,-2.135088,0.41065407,1.4439155,-3.2872903
0.17006376,0.2039292,-0.27977473,-2.4648814,-0.87034404,1.02185,0.22353482,0.2612636,-3.6450016,0.63928986,1.2339067,-2.7635727
-0.18161245,-0.1649633,0.18917951,1.2823776,-0.18640327,-0.53437626,1.2329915,3.010002,-2.7431872,-3.0037599,1.5517231,1.1290882
0.11637793,-0.12933832,0.24594061,2.5857806,0.41512355,1.8274194,-2.0362053,4.1272116,-3.1852415,0.6394644,1.8282927,3.099714
-0.01635765,0.3078946,-0.32605824,-2.9580474,-0.32276258,-3.025181,-1.1475304,2.730838,0.8692403,-5.3282375,-0.27047318,4.3180466
0.104466446,-0.117820114,0.11721273,3.1057384,1.0137386,0.8016529,-2.8965669,3.3874485,-2.2992938,-5.0860753,2.8982806,2.0899785
0.032585412,-0.15119967,-0.05046092,-3.0515692,0.12455767,1.702629,-2.324944,1.2028625,-1.044054,-4.9803205,3.1110234,-2.4577703
-0.21634996,0.0007301718,-0.067563444,-2.8543606,0.031302173,-0.6244584,0.6884651,1.9905722,-2.4475543,-0.6920872,3.4583564,-3.7190666
0.225282,0.0022738902,0.010284666,-2.9135234,-0.28983703,0.112340845,-0.5876434,0.67756104,-0.38699126,-6.5650973,3.2203069,2.347728
-0.3008028,-0.13618605,-0.0022453424,1.8468299,-0.013554394,-0.2680632,0.6629183,3.9959629,0.008159161,-7.6119676,0.882709,-0.9695389
-0.098386616,0.3265839,-0.24616596,-2.883094,-0.77202463,-0.97377425,-0.9974668,3.0394366,0.6093359,-7.5952473,0.5275862,2.514456
0.012054056,-0.14458194,0.0792941,2.0186324,-0.9078662,-0.51194465,-2.5493805,-0.14001596,-1.0517023,-6.0990696,3.0304585,0.8742845
0.01613016,0.08795555,0.22324562,2.1078672,0.62889385,-0.8128232,-0.19631934,-0.8583683,-0.18336082,-1.5664902,2.5390496,-0.15273881
0.3096193,0.24752286,0.06721509,-1.9475986,1.3470917,1.2524205,0.38133645,-0.8679366,-3.3870852,-8.980709,0.4104454,2.0578625
0.15609321,0.2659738,0.21971679,-1.5483285,-0.60184664,0.5230726,0.38686275,-1.2893025,-3.4992497,-4.676876,1.7837855,-2.5492826
-0.2753721,0.004765313,0.03989706,2.0757952,-0.7797148,2.3780217,0.37340903,2.4086783,-2.6063333,-2.8080091,1.7357553,-2.7735987
-0.24205896,-0.05068548,-0.1097985,1.475268,-0.21301638,-1.5527841,0.53127193,3.58662,-0.3663733,-7.1048946,1.610694,-3.0455022
-0.2990398,0.009300776,-0.20621577,-0.7967009,0.44155216,1.9456775,0.48969388,2.742112,1.042839,-4.2904363,2.724595,-3.1550796
0.0842378,-0.039334714,-0.39450213,-2.750547,-1.2932092,-2.002584,-1.2727239,1.0440488,-4.070291,-7.4782124,1.2706456,0.8449204
-0.143354,0.18281399,-0.19417693,-1.2929837,-0.3884591,-1.3159639,1.5213435,0.1183902,-2.8085902,-9.985617,2.224327,-0.09501004
0.2940166,-0.18856445,0.25259903,2.1872349,0.686793,2.436241,-0.9701071,-1.1254612,-4.0487046,0.2071886,0.9426489,4.2219095
0.14997165,-0.08147885,0.32275307,0.8973593,0.16332012,2.3918326,-1.2932923,4.183052,-3.134951,-9.052536,0.15158838,0.28072095
-0.084943,-0.19731976,0.2536575,-2.9704952,0.3676138,1.1984019,-2.616272,-0.57469535,0.74518204,-9.609456,2.90654,-1.5744076
-0.07413638,0.1063692,-0.072331265,1.993429,-1.1809791,-2.6690636,0.36554837,2.5035188,-1.1861899,-9.496568,3.0443883,4.7203465
-0.19402117,-0.15177393,-0.27118176,-2.2695746,-0.39818317,-2.5922055,-2.7863798,1.4405892,0.3273282,-0.9594164,1.3367308,-2.2027397
0.13760711,0.074055344,-0.007678733,1.0316585,1.1415943,1.2486924,-0.664171,2.9434407,-1.4261515,-1.0417767,-0.32944566,-2.8808904
-0.08909671,0.13377756,-0.08098055,-0.19866511,-0.7633678,2.05369,0.015309095,3.1398962,-0.8644178,-7.3073034,3.3218608,1.1640642
0.30444524,0.13511096,-0.16073343,-2.807603,-0.34127617,2.0527072,-2.4294627,2.2411828,-3.499134,-2.6430273,1.8996803,-0.27458835
-0.155482,5.498156e-05,-0.1842163,2.1658459,-0.55832446,-0.39243853,1.4796689,2.5309756,-0.735765,0.6345377,2.2435136,4.692383
-0.006831579,-0.33906206,-0.043226562,-3.1034038,-1.2187226,0.42962316,-1.7899308,-0.594417,-3.352199,-1.4453745,1.1846067,-3.6188097
0.04809849,0.16140401,-0.04134682,-0.9284382,0.9233622,-3.0346546,0.30690384,2.4370887,-1.1648085,-7.5090723,-0.23528326,-2.7632349
0.074394435,-9.848736e-05,-0.40096563,-2.2064104,-1.1552244,2.169984,-2.0882025,1.395477,-4.0779877,-1.8351841,1.4308943,-1.4924533
0.10267272,0.28592435,-0.30904728,-1.2967718,-0.055205483,-3.1069431,-1.4834025,2.4346218,1.0466857,0.028998375,1.5048231,4.7214947
-0.09260696,0.10537082,0.092143245,-1.1224031,0.4569847,-2.2882807,1.4711878,3.8904545,-1.924665,-2.659634,0.8847194,-0.9912846
0.11405758,0.065562524,0.0910133,-0.93274796,-0.21569706,-2.4465,-1.2240713,0.33770108,-1.2299485,-0.86320686,-0.08609632,-0.21858764
-0.0763178,0.15387703,-0.048248257,0.09068474,-0.5845338,-1.9325635,-0.44548726,1.1745052,-2.2672703,-0.5289974,0.6512681,5.1222076
-0.057591096,-0.255802,0.05159247,-2.9265587,-0.43971774,1.510658,-2.167708,-1.2944349,-2.9328647,-6.83696,1.067162,-3.5788019
-0.07873856,0.154373,0.045975275,3.1207035,-0.68730783,0.5736472,-0.42822123,2.6775146,-2.2225266,-5.2683597,3.4752164,-1.906283
0.26307592,0.31497452,-0.20074691,-2.8324866,0.63993,1.2903233,0.5848522,0.07596171,-4.0115824,-4.035003,-0.1626842,-3.4635837
-0.10074312,0.092705555,-0.17077737,-3.0015376,-0.08318069,1.259047,0.6873441,3.0568583,-0.9836843,0.18563461,1.0515527,4.99119
-0.015584618,0.15930682,0.16992874,-0.9264792,0.5844063,2.8966494,0.58788323,3.6552966,-2.2349327,-3.7324033,0.46321702,-0.73304725
0.110990085,0.020893576,0.052339364,0.21862859,-0.20772108,-2.459714,-1.0717058,-1.2237097,-1.6814971,-1.1151648,2.821385,-2.4919043
0.28534114,0.08722423,-0.23888865,-2.8442402,0.27074,1.7061434,-2.4193828,3.230182,0.17223167,-0.25107765,0.14151996,-3.5582976
0.24218777,0.16766034,-0.013273478,-0.69115263,-0.4559956,2.233922,-2.2584624,2.119733,-3.0437725,-7.28089,0.99234617,-1.0166132
0.15731204,-0.11935432,0.032627985,0.0743612,-0.14508176,1.0736185,-1.2722825,-0.9762728,-2.3484108,-2.4840264,2.8770628,-0.15831804
-0.034399647,0.12456322,-0.053731505,-2.6163795,0.8438742,-2.8192627,0.98427176,1.8642166,-1.313554,-6.7405324,1.6995395,1.2682817
0.12908185,0.13018282,-0.33202338,-1.9710058,0.3646932,-1.54874,-0.6725004,2.1541815,0.21022367,-5.167809,1.4914457,0.6148741
-0.023660054,-0.25653797,-0.004495602,0.37359482,-0.016276278,-1.983658,-2.2317767,1.3448484,-0.4574151,-3.5183792,0.6113055,-2.616549
-0.028102607,0.1532187,-0.051526405,-0.85520786,-0.9377508,-0.6087746,-0.34100032,3.205279,-1.1420546,-8.3801775,3.3172922,-1.8174714
-0.12885657,0.070328295,-0.0426449,-2.6955953,-0.17540471,0.8972071,1.1776149,-0.37881875,-1.4597583,-3.4725323,1.6497024,2.0669196
0.09845238,-0.08320261,-0.2413387,-0.95730597,0.8585174,2.6490636,-2.5529568,2.3410475,-0.10392618,-6.3704443,2.8601394,-1.6476862
0.19012934,0.12360154,0.24782336,-1.0932149,0.61456954,-0.021042455,-1.856862,-1.1550792,-0.18846464,-8.313416,-0.39925677,3.752155
-0.12002214,0.06786383,0.031140065,1.9078189,-0.28125,3.0315566,1.3695929,0.8220258,-0.9605553,-9.517254,1.7561666,4.518853
-0.14039008,0.31893295,-0.17415547,-2.381105,0.6354483,-1.9497031,1.7476132,-0.166893,-3.5087352,-7.975671,0.75726974,-1.607871
0.009788966,0.2365059,-0.2931406,-2.0130157,0.02287982,1.6454693,-0.8428881,2.7782328,0.093705654,-5.5934696,1.3318046,-2.8890896
0.12779546,-0.038660012,-0.12748021,-0.4227518,0.11120685,-0.98133105,-2.4748755,2.9363606,-0.54249954,-2.540842,2.6799212,5.115206
0.36501867,-0.095256254,-0.10459758,0.5355055,0.29690978,0.6986095,-0.54730463,0.9022925,0.6943679,-9.118137,1.0674977,-1.8893456
0.17780922,-0.08673714,-0.09059511,0.7488402,0.016672868,-2.022882,-2.6229975,1.2525723,-2.5060506,-5.638054,1.6491529,0.52544665
-0.006389115,0.14898176,-0.18481895,2.5025725,-1.1823286,-0.53692234,0.44050837,2.004855,-0.48799753,0.6443701,2.819253,-2.3209717
0.17390141,-0.08362826,0.07371383,1.0651654,-0.31210878,-2.375149,-0.85266995,0.8883438,-0.7398181,-1.1463737,1.0253881,-0.48341036
0.032236543,-0.07905199,0.19011268,-1.3462248,0.09834529,2.367312,-2.4568968,3.9970605,-2.4990153,-1.9455223,2.3072996,2.0780356
0.08688437,-0.21630679,0.10354462,0.48062828,0.116683185,2.2751539,-1.8337157,0.8591709,-0.6853895,-5.5448194,0.35152608,-2.905124
0.0069611855,0.3106225,0.1400425,2.8247766,-0.18909016,-1.9012897,1.1245453,-0.121721745,0.6985121,-6.1061525,2.92703,-3.7219198
0.08372967,-0.05808214,-0.0069622435,-2.7212415,-0.80821455,2.5379384,-1.5173562,0.9712231,-1.089709,-8.360717,2.1998649,1.8506687
0.16462082,0.10989403,-0.24697109,0.7640422,-0.5996271,-0.87460965,0.100091934,1.4290276,0.6046233,-8.319523,2.5315943,2.7076528
0.21290219,0.26869708,-0.00010259822,2.935292,-1.0014592,-1.8391951,0.46936798,0.37084603,0.6844597,-8.077299,3.4354892,-0.07387543
-0.048044708,-0.15524036,-0.37880683,2.8254614,1.1508926,-0.9992612,-2.958292,0.8370464,-3.9152246,0.33048153,1.1128302,-1.3655491
-0.08200044,0.08380647,0.048143134,-1.8976287,0.66628647,-1.5773786,1.4177344,0.10579753,-1.2031043,-1.270731,2.5940447,1.8554313
-0.20601234,0.096249506,0.20904274,-0.15995722,0.00087670994,-1.4981698,0.20022774,2.8586023,-2.7690797,-4.368407,0.16638833,-3.6202698
0.024456553,-0.20470577,0.103325844,-0.8650558,0.43986398,1.3514974,-2.1102598,-1.2853653,-2.701501,-9.307262,3.240573,0.23733282
0.2610873,-0.09347112,0.23440549,-0.13214332,0.81168276,0.54129803,-3.015912,3.0812047,-3.0327935,-9.42604,0.86833334,0.36000228
0.040018614,0.12370186,-0.11289384,-3.0056245,-0.5245011,-2.5303833,-0.14483833,-0.5530161,-1.9268818,-3.4847884,0.13059664,-2.3833785
0.010222454,0.18312699,0.2365523,-2.0793176,1.1068616,2.9710283,-0.42150903,-1.1385251,-0.063503265,-4.7584248,2.333027,2.2064955
-0.20972101,-0.08671764,-0.034525275,1.0238333,-0.75861007,2.2545981,1.0907257,3.9240654,-0.8689432,0.37132645,2.0386758,1.1143363
0.06613307,-0.08628783,-0.07505934,-2.3287125,0.17077956,1.7233455,-2.2439513,-0.94812095,-1.9061229,-6.895336,0.57672143,-2.9252944
0.15592308,0.15816581,0.07420437,-0.36631578,0.4667892,-1.2492458,0.093235254,1.0659158,-0.8223417,-8.613581,-0.39133313,0.8641269
0.16214748,-0.25260675,-0.12471256,0.7863804,-0.26006186,2.84044,-1.3379774,-0.15074992,-3.1691341,-8.9078245,2.1704116,1.4006193
-0.07958062,0.12310913,-0.036005497,-0.042789795,-0.72165096,2.2414727,0.44921088,-0.009105325,-1.9566791,0.33203983,1.3204051,1.8339345
0.10558304,-0.10373327,-0.28898478,0.68520427,-0.6104275,-2.3840504,-2.6927693,1.2923553,-3.543056,-7.977911,3.363563,4.5685606
-0.13637313,-0.0069307014,-0.445288,2.9501536,-0.12108843,1.8652204,1.3011191,1.9781334,0.9483495,-9.267676,-0.4362242,-3.254992
0.19304404,-0.08146754,-0.108097635,2.4768584,0.98217535,1.1947076,-2.5779834,3.6709821,-0.9421513,-5.4385834,1.3779386,0.77897954
-0.17637199,0.08703854,0.03334742,0.25462875,-0.25458553,-0.81194144,1.8536112,-1.0251611,-2.2642825,-1.6482515,3.457624,1.96017
0.09411977,0.1422841,0.11982359,-3.0421817,0.49304888,0.0949313,0.15266252,-0.051472425,-0.53368163,-0.1720047,3.226016,3.2465184
0.053342212,-0.3976183,0.08836749,0.87518686,1.3788128,-2.3998847,1.8763807,2.9694145,-3.8978045,-8.034406,1.1356363,-2.4323192
-0.1258585,0.029302275,0.21745653,-2.376616,0.89785236,1.2824976,0.7850208,-1.2053868,-0.046414852,-2.1385417,2.8437614,-3.0021226
0.13435863,0.13492501,0.07545248,-2.786083,0.0039553465,1.7292053,-1.6447896,2.868962,-2.4615216,-3.5348606,3.1984763,-0.30366158
0.08917862,0.19725387,0.06877399,-1.8564152,0.29578644,-1.416606,-1.1067004,-1.1380084,-0.9000132,-4.816661,0.7411772,-1.1046534
-0.036554717,0.29767984,0.15848723,2.0755143,0.2614341,-2.7443762,-1.0605123,3.3072898,-3.975268,-0.4490242,2.695057,-1.3407335
0.03041178,-0.12983526,0.22341344,-0.17867926,-0.36704758,2.4138098,-2.197339,-0.006958604,-0.5895262,-0.5904503,0.7710167,-1.1740341
0.033206344,-0.1082992,0.06463841,0.64872473,-1.1178354,0.5379643,-2.5851312,-0.71124333,-1.2799895,-4.910519,3.3998585,4.2486734
0.009528395,-0.110327505,-0.32453722,-3.1012669,-0.8909272,1.5919349,-2.7886384,0.8350835,-3.0864768,-9.12358,1.7365927,-1.3006446
-0.0578675,0.34244275,0.072330244,-2.579945,-0.18195541,-0.29976094,1.3069689,-1.1062518,-3.2858453,-5.8339844,0.79925823,3.8539774
0.10341969,0.08104013,0.025638325,2.2949889,0.7860622,1.0582609,-0.69892836,-0.6342694,-1.2232628,-3.2131314,2.365694,-0.030983448
-0.22971988,-0.2694703,-0.23822759,1.8504205,-0.6382205,2.2305946,1.2980082,1.8861136,-3.5709424,-7.543458,-0.3942644,1.8161066
0.01365365,0.11074862,0.061068885,0.23485065,0.15645632,2.324301,-0.026429653,1.7697706,-1.5298553,-1.8759146,0.23884952,4.2726097
-0.0783182,-0.055124454,0.13177484,-0.16096722,0.7138209,0.69785607,1.6675322,-0.7864818,-1.0420957,-0.7536926,1.8189896,5.0559025
-0.15278947,0.05831968,0.3949896,-0.059327535,-0.1299515,-0.31424195,1.8337815,-0.74390066,0.4872036,-5.9696555,0.36415654,-2.443359
0.16287667,-0.062035143,-0.05361736,2.590907,0.6336823,2.0114756,-2.1159878,1.3758585,-1.710403,-4.4755836,2.299912,-1.4791243
-0.16417946,0.058454446,-0.21144563,-2.9522433,0.33476046,-0.83312845,0.46683884,3.3566859,-0.44757676,-6.355791,-0.15059853,-3.4019012
0.38234586,-0.08214681,0.09321591,0.52149904,0.6398125,-1.922413,-0.5307932,0.47688997,0.3575592,-5.3838034,-0.0542078,-2.0959935
0.23049901,-0.20773052,0.10917291,-3.001642,-0.9155698,-1.813743,-1.0127988,-0.8989322,-3.717773,-7.0529113,2.0175576,0.09942865
0.30693835,0.01368399,-0.045500554,2.3273277,-0.70468956,-2.2904947,-2.6373131,2.4742212,-3.4141958,-5.099431,2.9547195,-0.1982553
-0.29431692,-0.17255697,-0.13193505,-0.040888406,-0.17937201,2.9383776,0.9404843,3.0385387,0.69100237,0.27028465,2.461864,2.2200487
0.113084935,0.002760321,0.22230504,0.74363613,-0.20589666,-2.7507932,-0.87276006,3.865144,-2.4636583,-2.4083939,1.0560712,0.92306304
0.10428607,-0.037266146,-0.12113181,-2.1723394,-1.5218986,2.5859804,-1.0478003,-0.3554647,-2.3841593,-7.3370914,1.3343047,5.104945
0.055853855,0.06252046,-0.17303625,1.2654792,-0.6669949,2.8854737,-1.2446266,2.996349,-0.49196815,-8.442812,1.4559782,0.9730222
0.07593636,0.02840082,0.040377706,2.0757654,-0.763197,-0.12643863,-0.61956096,4.0961027,-1.9539468,-7.4425545,1.5462023,3.2544844
-0.105741605,-0.03706896,-0.036466002,1.1922771,0.47871605,2.7235503,1.8528278,2.2120476,-1.1480689,-2.8591027,2.2724266,4.374091
0.13752645,0.36472756,0.009605065,-0.11584294,0.18115284,-2.5187175,0.8945935,-0.32951105,-3.7238188,-9.347494,2.025363,-0.24117899
0.12879379,-0.11053154,0.4091853,0.28038734,1.083026,-2.7776103,-2.4842784,-1.1985399,0.89144135,-4.096209,0.90621364,-2.1825337
-0.07900956,0.19954461,0.124936536,3.0182061,-0.34477386,-2.7082515,-0.6759572,3.057081,-2.8794188,-1.647253,2.8340654,4.442381
0.0031012185,0.0796143,0.03496748,1.9894906,-0.9527768,1.0057273,-0.53262067,3.0619948,-1.7833195,-1.45543,2.0746484,-2.6899981
0.04021499,0.12255357,-0.033919774,-1.8729391,-0.92834014,3.029223,-0.8029866,3.039348,-1.4205546,-10.097029,3.4326267,1.0186379
0.058769155,-0.10868597,0.053530812,-2.2597008,1.1893538,-1.3517921,-2.9873016,3.5952575,-1.8846347,-0.36636734,2.7360845,-0.80733275
0.3180097,0.073140465,0.042943414,-2.8766384,-0.9967414,-1.1976188,-0.16828561,0.25364542,0.68013954,0.0052728653,3.2269568,1.6364119
-0.16444054,-0.1317002,0.13602531,1.7677135,0.17584555,-3.0751874,1.1061757,2.9070723,-2.5889664,-2.4315019,2.0135489,5.022992
0.08589025,-0.23624758,-0.14843908,-0.48920423,0.47978422,1.6355968,-1.8441384,-0.011036396,-3.262196,-5.612848,2.5779452,4.05219
0.009653922,0.07224594,-0.035373297,2.0927014,-0.6532805,-2.2951055,-0.45008206,0.6181587,-1.5929482,-8.339641,1.587952,4.300297
-0.12910736,0.08122665,-0.18597086,1.6069874,-0.118437804,-0.20925766,1.5441782,1.881716,-0.32011318,-1.8549061,3.2372766,-3.6371632
-0.21807808,0.26209363,-0.31299633,-2.1408255,-0.4377192,2.3719566,1.8479564,0.48110092,-3.9758544,-9.731763,0.71911454,-1.9550396
-0.09705944,0.14798155,0.02539542,-2.0941844,-0.9797067,-2.8769503,0.33994722,-0.16480494,-1.3191922,-4.2872252,0.9330454,3.5196736
0.10825357,0.09622417,-0.39722532,2.8799186,-0.10910252,-2.7401528,-1.4750552,2.3913138,0.55281115,-1.9463081,0.14342117,0.87378955
-0.3736986,0.09285936,-0.23096724,-2.9126334,-0.18220474,-0.8238007,0.13122034,2.9905217,1.0042982,-9.79963,0.73305583,-0.4485457
0.11924854,-0.10861777,-0.3969747,-2.857449,0.85512495,-3.05551,-3.0650458,2.2135935,0.6679349,-6.4215317,1.1466594,-2.731936
-0.1931499,0.16479923,-0.081854306,1.4634014,0.88638794,-2.5329633,-0.2950337,2.1271813,-3.2203279,-0.65965366,2.4808064,4.6606884
-0.13426885,0.004859142,0.019905392,0.9312775,-0.10245311,-0.21004908,1.6116388,-1.1318552,-1.8444467,0.15194225,2.043229,-1.7358742
-0.21904281,-0.10501285,0.25135344,-1.4189227,1.0844573,1.5628374,-3.109315,-0.31326073,0.7891054,-2.661048,1.9270192,0.3404467
-0.09415986,-0.2536643,0.34713665,-0.19316491,-0.06243055,2.8949363,1.7067692,3.6251585,-3.9442632,0.072203636,0.51996243,1.1279371
-0.28288454,-0.27348223,0.05569449,-1.9188943,-0.8056902,-2.4885812,-2.5400658,0.17477345,0.8863802,-1.2475014,1.4884621,-2.783944
0.10260688,0.21135587,-0.01153094,1.4361466,0.29339007,-1.9502214,-1.414861,3.9547946,-0.16982317,-3.3344388,2.3349466,-3.6763709
-0.07872013,0.107595205,-0.25744563,2.9743211,-0.29122075,1.2392423,0.80022,0.30800223,-2.5716367,-3.3201637,0.5638205,2.2000186
0.12606366,0.07146852,-0.25833312,0.63129896,-0.15470387,-1.8588635,-1.6620158,1.3252716,-3.4397597,-0.26145458,2.74299,-0.45586944
-0.06584419,0.24538386,0.36574185,-1.264776,-0.4214702,2.2761486,-0.6624346,3.9363444,-3.9271898,-3.6092815,1.3004776,0.5725186
-0.12568945,0.14233221,0.06398794,-2.8050854,0.005140205,-2.4027483,1.5758574,0.33637333,-0.6479404,-9.691706,3.1674185,-1.0940175
-0.01854726,-0.20899627,-0.30489445,2.1728864,-0.62974656,-2.3832374,-2.3024554,1.9370985,0.10980415,-4.6153574,0.0068206787,3.4148462
-0.038995475,0.22256336,0.26092777,-0.14893194,0.168318,-0.4991474,-0.73238397,3.1270578,-2.971549,-4.1987033,0.25630397,4.401952
-0.0012878682,0.2975147,-0.041089676,-2.573079,0.14212593,-0.2114547,1.1145494,-1.0137502,-2.749383,-1.9750214,-0.11735529,-0.1874528
0.03875493,0.121550664,-0.23499478,-0.47674054,-0.727584,-0.09531196,-0.46103024,2.2859898,-0.022301674,-9.750759,3.1071105,3.3709815
-0.10285335,0.122719854,-0.35702237,-3.0355015,0.40384215,0.74203527,0.07175851,2.6076777,0.29482317,-0.383214,-0.18546757,4.368779
0.12701547,0.25906932,0.19174817,3.0422099,-0.030303638,2.2483292,-1.5840918,3.4714248,-3.8093004,-6.160886,3.3814173,-2.3584626
0.10754275,-0.05606001,0.14639929,-0.6234004,0.3079689,-1.3545413,-2.2109647,-0.037324905,-1.0378575,-3.3708377,-0.4034327,-2.205379
-0.11048782,0.038160477,0.26540977,0.22719055,0.53575015,0.72822136,1.8276145,-0.21531534,-0.33740973,-1.2054405,0.4960587,0.038028
0.112592496,0.016051251,-0.3061769,0.3325283,-0.17084463,-1.2534561,-1.057498,1.0440564,-3.777828,-7.301209,2.7737255,5.1046276
0.01968782,0.14533779,0.24697682,3.0622675,0.084673606,2.5635285,-0.68611073,-1.1760008,0.29045248,-3.1308002,2.3717341,1.8813698
0.088449284,0.08808313,-0.030207522,-1.6860936,-0.5614202,-1.3754232,-1.4571956,3.7774503,-1.3760839,-6.8209667,2.132092,-0.097554445
0.17979369,0.053420845,-0.10598827,1.3231943,1.1213522,1.5186398,-0.44849515,2.2107005,-0.8507278,0.105345726,0.104712605,2.7619722
-0.16483636,-0.03849768,-0.042399712,1.3974221,-0.655245,-1.5686418,1.3435862,0.46233118,-1.7985368,-4.533018,0.43849057,1.4180825
0.053790223,0.107694894,-0.06604761,2.6091795,0.6873105,-1.0007558,-0.4473796,1.2097394,-1.7837815,-3.436245,3.4180903,4.321027
-0.21960564,-0.14061984,-0.23056382,-2.6416004,0.58347213,3.0828512,1.0031574,3.1684453,0.3830843,-2.863297,1.138224,4.0255337
0.093361065,0.053302493,-0.40417755,-2.6155863,-0.7575831,0.17814471,-1.8189002,1.3122137,-3.8149648,-8.14486,0.9089147,3.4427679
0.30326083,0.09209717,-0.08158207,2.656412,-0.5827793,1.6253711,-0.025474072,-0.4911394,-3.4855125,-0.41710854,1.475475,-1.2139986
-0.2106309,0.27341756,-0.0013310513,1.4674927,0.33449265,0.020225346,1.8638237,-0.30141258,-4.031991,-0.15347195,2.8570876,4.5554028
0.0017558597,0.23839198,-0.16280326,-3.063492,1.0523409,-2.1843388,1.2484119,-0.3582301,-2.8260436,-8.197713,1.0392284,-2.140702
0.29676932,0.002762733,0.15591532,-0.35105163,0.26372528,-2.8290138,-2.7439592,2.6691954,-2.9834008,-1.9025183,0.21871752,1.737354
0.22600621,-0.09923647,-0.055814415,-0.2608681,0.9707447,-3.0200696,-1.2178562,1.6078553,-0.58503056,-4.272399,1.1471657,1.7783148
0.15715536,-0.075825915,-0.107363746,-2.7939677,0.017903622,1.2277696,-1.3084083,-0.8725362,-2.2496433,-9.09236,-0.329661,-0.41096878
0.08196911,0.13284947,-0.07439779,0.16882966,0.98492444,2.0990896,-0.6916182,3.3689277,-0.8940029,-9.902625,1.5656642,-0.4946704
0.35560274,0.16243735,0.057010222,-0.28494948,0.4145288,2.9720726,0.061909676,-0.59116787,-3.4989781,-3.3792372,1.7440645,-0.38653708
0.2760128,-0.22204073,0.02012933,-0.96208894,-0.00908655,2.5173862,-1.1087937,-0.38930267,-3.807564,-4.3551526,2.7500386,-0.5168426
0.09718099,0.105201304,-0.4186802,-2.7362006,-0.26429975,2.1513531,-0.49587703,0.96077514,-3.7901568,-5.2252936,0.24404335,3.6506016
-0.18004306,0.11038718,-0.17421165,-1.2909944,-0.6791297,-1.4322269,0.5331106,3.047158,-0.45916128,-4.737166,1.8414654,0.5282619
0.13874178,-0.095549315,0.15818383,0.09711802,0.39024785,-2.033329,-1.7025954,4.089324,-2.152852,-9.843649,1.8679563,-3.5913007
-0.07781024,-0.1367873,-0.328297,-2.2952027,0.8492827,-0.86234736,1.5702822,1.5207641,-3.5530553,-2.2551517,1.8217691,1.0034101
0.024914907,-0.41517502,-0.1004383,2.4453669,0.27531594,-1.8984364,-1.8904126,-0.34109962,-3.6919096,-5.234315,0.54851735,4.7041464
-0.055867683,0.10771766,-0.06319787,0.14676538,1.1899328,3.0286608,0.13286352,1.181215,-2.1909811,-0.21834278,2.1862864,-3.2951388
0.10817346,-0.048563786,0.29567856,3.07353,-0.49202305,-1.9230404,-2.412883,-1.2879813,0.63339615,-8.547035,2.7831783,2.751116
-0.28154176,-0.07752392,0.023206279,-0.36151055,0.3825967,0.580021,0.7134557,3.786404,0.10546255,0.016496658,2.9114451,-0.18912983
0.07356538,-0.15920696,-0.28280747,-1.1758955,0.22547092,-2.3712194,-1.8961238,1.5161407,0.62876606,-9.809643,3.3446555,2.0871065
0.088201754,0.2834121,-0.031954985,-1.3287036,1.1135691,-2.5134096,-1.1847142,1.9984031,-2.7278552,-4.739008,1.4521881,-3.1319656
0.110521875,-0.05337471,0.14068495,-0.8614329,0.3372938,2.5592728,-2.0587378,0.143579,-0.977278,-5.7547984,-0.08611998,3.9139144
0.07428619,0.1848812,-0.20939615,0.9944359,-0.6977395,-1.417948,0.5813823,0.1657052,-3.3654604,-0.20994091,2.058535,-2.6064887
0.371122,0.032327883,0.14393747,0.3438108,-0.25803563,1.582454,-2.679003,3.0077345,-3.948999,-6.099298,1.3348038,-2.1455884
-0.08211964,-0.052123632,-0.104177475,0.76202786,0.7416618,2.2513592,1.5916226,0.47209156,-2.2304182,-0.81895924,1.1435169,1.0775702
0.18882999,-0.06460501,-0.41163528,2.438151,0.34997424,-3.062792,-2.4605103,1.5311878,-3.9938793,-4.0466356,1.0649284,1.2473514
0.17323284,0.2241575,-0.15826249,0.38307515,0.01774158,-2.2226791,0.5353782,1.2032993,0.5420952,-9.066581,1.9111584,0.47942853
-0.114087224,-0.050572738,-0.14330378,2.069653,0.26767015,0.54629827,1.8377812,-0.020186543,-2.131461,-3.4461837,-0.105873495,2.5467036
-0.11601367,0.0071711913,-0.16547886,1.00312,0.5467097,2.1280499,0.574533,3.0382493,-0.4047923,-1.8587751,1.959922,-0.3158033
0.1288677,-0.11334531,-0.059034143,3.0114677,0.41737872,-1.3979131,-2.92632,1.7434297,-1.9188337,-9.794044,2.5460315,1.5810935
0.22684333,0.102071196,-0.04322057,-0.3201504,-0.5050661,0.46214306,-0.16358566,-0.5013077,-2.9120636,0.60318375,2.7945504,1.3399265
-0.13987902,0.07184708,0.30129483,2.417724,-0.63983625,2.505785,1.3145025,-0.80580527,0.52224255,-9.926766,1.9724146,-2.6314225
0.1186576,-0.13123399,-0.12083723,2.4314322,0.35075688,-1.4092202,-1.9759195,-0.33463222,-1.9727542,-3.7414799,1.408232,-3.237897
0.046470553,-0.32334593,0.12449516,-1.7511495,0.29290947,-1.2721952,-1.8299929,-0.6638336,-4.0598803,0.23052216,2.9758945,0.48005033
0.17808168,0.108700104,-0.30326855,0.5619727,0.5000112,-0.72829056,-1.7201566,2.325555,0.9514675,-4.226357,2.4793453,3.1541493
0.08599598,0.26980153,0.25658914,-2.710437,0.26069045,3.1334248,0.7764168,-1.3015298,-3.9817376,0.10804081,1.6524078,0.8613641
-0.028671086,0.12281734,-0.11855662,-3.0011468,1.2183411,-1.8236696,0.067129135,3.5191858,-0.90356374,-9.401787,0.6960802,4.5967464
0.1245351,0.3070797,-0.2021111,2.709872,-0.6231329,2.6533155,-1.6782882,2.3372552,-3.912961,-2.5075636,1.9788395,1.2500479
0.1913292,0.070268705,0.23706424,-3.1347759,0.08528516,-1.7042707,-0.32404256,-0.5053675,0.42696142,-7.863081,3.175161,-0.46500874
0.17168018,0.056854524,-0.122933984,-1.58089,0.6773366,0.98610324,-1.8345505,3.14594,-0.8847332,0.5986233,2.3475137,-3.2831647
-0.2269655,0.12072033,0.19757223,0.076042466,-0.031767588,0.5630377,-0.00063085556,2.808839,-2.9328508,-3.8327708,-0.1194326,-1.8926733
0.23681977,0.0756271,-0.18081845,1.8518984,-0.7148502,-0.63536125,-2.3041654,1.9466288,-3.3726318,-9.404797,3.0753078,-2.3729992
0.12182754,0.056610778,-0.20398127,2.2690034,0.66935724,2.2290356,-0.77095866,2.7454278,-0.657696,-9.293448,-0.011541724,1.0061266
0.09965495,-0.02798218,0.23104781,-0.56159496,-0.3289984,-1.5889574,-1.667464,-0.21492672,-0.57882667,-4.1348658,-0.4577124,-2.1291313
0.079326555,0.39394018,-0.18538831,-1.5980515,1.08959,-1.9531983,-1.2834868,2.358012,-4.0937877,-4.7319293,1.3776202,-1.8117127
-0.15536085,0.06041051,-0.3174844,2.3241844,-0.94295985,0.06385066,0.47374582,0.9955852,-3.167676,-9.489126,-0.18811196,1.043299
0.07255387,0.05431982,-0.39362872,-2.799388,-0.8241515,-1.3963379,-1.3108127,2.111961,0.57237434,-0.78642654,1.1663244,0.8746655
0.21644478,0.18547054,-0.34838945,-2.6339056,0.23485637,1.4602005,-1.9699606,2.652294,0.7374363,-6.18178,0.30762273,-3.6955557
-0.24599914,0.24510372,0.055300914,-0.6944505,-0.40724486,-0.47119758,-0.3286004,2.3555932,-3.0263376,-4.7038193,0.4426952,-1.4161472
-0.09937909,-0.23404412,-0.036653556,3.0690053,-0.45755082,1.5340227,-2.4195614,-1.136572,-2.597309,-0.91054916,0.31290334,3.1096966
0.21120334,-0.04013813,-0.038075157,0.1384709,-0.009056237,1.9592801,-0.7728617,-0.52803046,-2.5648477,-5.0887437,3.2548828,-2.354659
0.0735694,0.11582782,-0.31626874,-0.17679588,-0.10781881,-0.05845039,-0.9730089,2.0384736,0.8920622,-4.2697806,3.1311212,2.9385302
0.10399677,0.24070695,-0.20462328,0.7210515,-0.5639942,3.0502865,0.68916154,1.1209021,0.79832506,-2.8769913,2.7875252,-0.7919266
0.17526443,0.10003092,-0.01426436,-0.11970513,0.059826452,2.383299,-0.20479536,1.6237509,-0.6805773,-3.304914,0.9150648,-0.4591806
-0.05856286,0.0840739,-0.01320955,-0.712229,1.0753586,2.0471275,0.75816584,3.836264,-1.2704628,-9.030201,1.4077562,-2.096754
-0.18229598,-0.036667235,-0.04164108,2.7409327,-0.4656155,-2.3532052,1.0414741,1.9114847,-1.9825351,-3.4888086,2.4706807,4.7287903
-0.27250484,0.08576879,-0.104499385,0.1051246,0.3549392,-1.7571753,0.1156733,3.2559927,0.32939243,-0.94859314,2.9711347,3.5115907
-0.025948659,0.10124641,-0.026071679,-2.9531214,1.0604734,1.2588311,0.7166889,0.31958723,-1.5093296,-1.9108076,2.5773091,-3.3098679
-0.042579178,0.14204247,-0.17541203,-2.1323256,0.61893934,-1.4590992,0.5572691,2.872177,-0.78317595,-1.4009228,-0.2862352,-2.1258917
-0.18429434,0.34028924,-0.16246426,-0.7893242,-1.1768963,2.839593,1.5715926,0.077972054,-3.814983,-4.3239737,1.6414376,-2.045062
0.058129795,0.17738003,0.021361742,-1.2773856,0.31455025,1.2389446,-0.37006354,-1.0864074,-1.4909317,-4.899183,1.7829686,2.3246953
-0.1620037,-0.013995442,-0.18106958,0.24682958,-0.61041045,-1.7748281,1.6390846,0.57419276,-2.744378,0.6650152,1.8919104,-3.1847098
-0.020777313,0.12227191,0.42551875,0.070687465,-0.35270447,2.3774931,0.121982574,-1.077562,0.7138486,-7.645065,0.024285853,3.6004212
0.0943721,0.10255539,0.05789904,0.055104412,0.43646228,-1.3363929,-0.5967803,1.6595984,-1.5495653,-8.8067045,-0.3455702,1.7849028
0.08663507,-0.122597374,-0.063721,0.8549557,-1.0100319,-2.807351,-2.9217334,1.2944825,-2.257165,-6.0326467,2.1540341,-0.38285017
0.0785061,0.043789923,0.060430333,-0.96455574,-0.8565763,1.8507193,-1.343568,0.38188636,-1.3278458,-1.7378016,0.67332673,5.0412006
0.234661,-0.1058631,0.2774268,2.2917833,0.7347522,0.83809745,-1.0113139,-0.5460733,0.52603054,0.32135105,2.1016984,-3.3346193
-0.14457312,0.1266671,-0.19585493,2.5862937,0.2500326,-0.011403421,-0.1930306,3.4396803,-0.29075146,-8.506548,0.60799134,-1.1924417
0.2050757,0.26977116,-0.29076952,-2.147276,0.045444362,-1.6074122,-1.8848271,1.9585562,-3.8318665,-5.6242766,-0.35968128,-0.83708525
-0.11690698,-0.09583639,0.0070868134,0.44793698,0.061334386,1.0032033,1.6426985,3.822849,-1.1469896,-8.311881,3.1080499,3.621846
