x,y,z,R,P,Y,t1,t2,t3,t4,t5,t6
0.063530505,0.11460653,0.24257681,0.2658973,-0.45408824,-1.3148825,0.04458481,-0.06781943,-0.4397078,-1.4364339,0.2201015,-0.04137498
0.14627905,0.13982828,0.15961598,-0.0349969,0.39557454,0.020726036,0.09650421,0.50066495,-0.6785997,-0.0091792345,0.57496256,-0.074085
0.2938845,0.0493942,0.13400473,0.2122763,0.6711675,0.50696653,-0.26931676,0.56898856,-0.24034002,0.017770171,0.37032932,0.8316558
0.011145577,0.12605464,0.2100491,0.04151358,-0.7043865,-0.33711037,0.048128664,-0.08939226,-0.65874404,-0.010146856,0.042738818,-0.39051986
0.12539469,0.07920242,0.24477664,-0.084978215,-0.32068503,-0.5432955,-0.40510815,-0.03398134,-0.43360287,-0.34598768,0.14858341,0.20972735
0.30586794,-0.007645852,0.20426585,0.27130142,0.46536857,-0.04526124,-0.44167554,0.23607914,0.0509941,-0.10103059,0.24724588,0.56580025
0.2050159,0.02983975,0.18284598,0.0008500425,-0.032896873,-0.75739187,-0.49925146,0.42177236,-0.47094905,-0.6728804,0.026466407,0.4143204
0.16433674,0.14236115,0.15024321,0.061270703,0.122443475,-1.0668144,0.12590843,0.60697854,-0.5346754,-1.0671308,0.086461596,-0.11909258
0.27231163,0.12530039,0.17737629,-0.0173029,0.32939872,-0.6367406,-0.004529953,0.38394278,-0.031132579,-0.65062344,-0.029453643,0.012363315
0.099822305,0.11198922,0.24186978,0.09590708,-0.29972288,-0.84617794,-0.06633982,-0.002377689,-0.43208838,-0.6747403,0.17841178,-0.14387918
0.2821422,0.1715817,0.1594854,0.10359693,0.7320887,-0.10857025,0.19973242,0.3734123,0.07377565,-0.6803397,0.33700716,0.46194524
0.12634128,0.06934758,0.23942906,0.23960716,-0.3099637,-1.3423669,-0.3210192,0.004932493,-0.4319136,-1.0347619,0.3697696,-0.09247202
0.07068931,0.096416496,0.2469342,0.09753806,-0.3606378,-0.7664369,-0.3042802,-0.20357549,-0.52239287,-0.46206093,0.4468902,-0.08929312
0.32057148,-0.04176171,0.08594902,0.85917705,0.5629798,-0.87363136,-0.4565417,0.6735982,-0.12636036,-0.7522777,0.5200582,0.7064274
0.1512621,0.15536018,0.29903638,0.06438863,0.12919146,0.49700412,0.21393925,-0.1710391,0.078859806,-0.41616392,0.22376677,0.69922537
0.22001822,0.077297755,0.28676137,0.026558183,0.05047046,-0.75981444,-0.22518697,-0.099516526,0.09661412,-0.24641097,0.059836693,-0.28756732
0.117139004,0.12571505,0.19190747,0.38278875,-0.10571782,-1.2433994,0.1753962,0.326087,-0.50784326,-1.5684834,0.35470384,0.096521914
0.08278998,0.12551996,0.2131513,0.089364946,-0.07868842,0.32784915,0.06282002,0.11561574,-0.62508607,-0.20132244,0.43275186,0.44115645
0.19404975,0.13260223,0.1967426,0.03184461,0.2206163,0.19960065,0.05001551,0.34377456,-0.32780388,-0.20544505,0.20720735,0.35889655
0.13592328,0.13171014,0.23216006,0.01506351,-0.19310401,-1.0595635,0.047932327,0.13827662,-0.33247742,-1.464123,0.0056028813,0.35462558
0.19834249,0.098258354,0.22104274,-0.042890865,-0.043805458,-0.50558436,-0.15477014,0.22432204,-0.2549413,-1.0738995,-0.04047897,0.72457
0.18000862,0.07575957,0.2805804,0.07999753,-0.12023656,-0.68640876,-0.25430375,-0.09156668,-0.07300794,-1.0091885,0.12670815,0.5634337
0.093807854,0.14052944,0.28565836,0.048603676,-0.29494575,-0.31311095,0.1476816,-0.16523352,-0.13830608,-0.59408057,0.0057296976,0.12557614
0.334474,-0.02304609,0.11069552,0.3239398,0.52854556,-1.3075874,-0.4459237,0.5963128,-0.0024417043,-1.0564303,0.035039432,0.29250216
0.23637313,0.08856589,0.26710102,0.1200854,0.10940118,-0.6401001,-0.13158342,-0.0069669336,0.10314214,-1.3024255,0.107785515,0.80550176
0.26983622,0.18032935,0.16893193,-0.11307394,0.5286422,0.2088539,0.19261193,0.37072438,0.05833733,-0.008327246,0.110416554,-0.005861938
0.22279803,0.07824137,0.2819395,0.016657215,0.019485751,-0.9724651,-0.2182984,-0.07456255,0.096176565,-1.4864199,0.012081593,0.7325457
0.29129204,0.0523991,0.13388711,0.5591159,0.4519288,-0.98511785,-0.16716155,0.5414377,-0.14071101,-1.1625094,0.44837967,0.5628968
0.24134763,0.17623386,0.21910937,0.03516608,0.41889083,-1.1025921,0.22618496,0.17795853,0.10941893,-0.8194271,0.16845596,-0.48387158
0.285796,0.0041798037,0.25830376,0.27089006,0.5826832,-0.91159654,-0.44884306,-0.0216918,0.13381082,0.07495403,0.5240419,-0.45830792
0.1871283,0.07925402,0.20437707,0.34230024,-0.054097317,-1.6260188,-0.13574219,0.28820944,-0.34596017,-1.4358313,0.34958997,-0.07389939
0.3249643,-0.014475409,0.18762985,0.41054156,0.7129478,0.23461995,-0.44168118,0.25586408,0.07037938,0.014476299,0.47812632,0.815368
0.30467668,0.13899025,0.13280153,0.08262108,0.9030839,0.499093,0.06493741,0.47132462,-0.014928043,-0.23360252,0.4560565,0.73417443
0.04968473,0.08200681,0.22299597,0.5224891,-0.7392853,-0.9593906,-0.25596973,-0.16195817,-0.54357237,-1.5895504,0.5555698,0.47011453
0.21822649,0.06943832,0.30101508,0.21115777,0.09819233,-0.7575267,-0.21178636,-0.17871074,0.16798091,-0.88461703,0.23921582,0.34829336
0.07279569,0.08875117,0.24348775,0.39645496,-0.31952256,-0.19298077,-0.16033688,-0.14508423,-0.49309668,-0.91098815,0.5486225,0.674864
0.17093694,0.1434281,0.14808032,0.14493471,0.2262711,-0.6174584,0.16031092,0.60837406,-0.50918156,-1.0402027,0.2040228,0.2877171
0.07571883,0.0968063,0.23610295,0.042536777,-0.36965093,-0.6858593,-0.3213253,-0.14057812,-0.5728494,-0.39892566,0.40130022,-0.028585017
0.19400491,0.11859338,0.20755303,0.1173505,0.2338809,-0.33044112,0.0023720264,0.2820137,-0.31987804,-0.4037354,0.29559648,0.082514524
0.145563,0.16493441,0.27199507,-0.014455448,0.05799685,-0.33791113,0.24108094,-0.03417185,-0.055883765,0.0011669397,0.14982468,-0.58057046
0.10298472,0.089376196,0.18637285,0.28140822,-0.44426823,-2.2451398,-0.16619694,0.26618743,-0.6584625,-1.638981,0.32482123,-0.56900513
0.13784906,0.14762017,0.30344975,0.37592,0.022515055,-1.8961169,0.28654492,-0.20817614,0.15027875,-1.6492971,0.36777517,-0.5398246
0.25222132,0.055227637,0.21682484,0.13966195,0.19361192,-0.9248002,-0.2690501,0.23613776,-0.11446166,-0.6674396,0.13050187,0.030216753
0.31358063,0.13173799,0.06378266,0.5986077,0.68781364,-2.315211,0.1204291,0.6922586,0.066101074,-1.6089374,0.53386134,-0.3905511
0.35112587,0.10767376,0.06153049,0.1363474,0.9860211,-0.8725431,-0.04384619,0.6709037,0.08609617,-0.16383481,0.23773763,-0.57527256
0.066361554,0.11852039,0.21618082,-0.050298713,-0.33780763,0.20955013,-0.12355882,-0.002717182,-0.656438,0.019929767,0.317879,0.32383
0.208754,0.1623738,0.18026341,0.39442173,0.3131366,-1.2880666,0.28289914,0.37272054,-0.11460745,-1.6549534,0.45403555,0.2066276
0.33596337,0.08943897,0.13912633,0.24835366,0.6430182,-0.9355423,-0.07996476,0.43049884,0.14596993,-1.0178874,0.17503151,0.29028952
0.36625206,-0.018929787,0.11064932,0.46339908,0.7716616,-0.82879835,-0.39566436,0.49232143,0.16248369,-0.122707844,0.22128734,-0.109743595
0.2812304,0.18314457,0.097115465,0.12697573,1.0345546,-1.0056702,0.24984658,0.5930805,-0.054700196,-0.5574372,0.54718834,-0.53815144
0.25709987,0.18209802,0.11258364,-0.10917526,0.61214495,-0.07707709,0.2146306,0.6400419,-0.14190483,-0.28312683,0.12655404,-0.033965588
0.20132236,0.0802911,0.18698469,0.2495268,0.11583504,-0.7694423,-0.15916252,0.38947797,-0.4079135,-0.9193235,0.28539094,0.3214826
0.17995466,0.11135801,0.29155806,0.33669773,0.10310923,-0.9987612,0.03879285,-0.14741234,0.07500434,-1.1275535,0.376766,0.095100105
0.14299415,0.077123955,0.26852605,-0.09760454,-0.2847791,-0.09780947,-0.3770457,-0.100693606,-0.2585968,-0.2720765,0.061370634,0.56233627
0.17358753,0.094569325,0.19267535,0.104652375,0.23767483,-0.4152192,-0.1628528,0.32673508,-0.5479366,-0.1355077,0.47687194,-0.11145502
0.17547071,0.07118315,0.23298219,-0.04032911,-0.18847291,-2.1614375,-0.3282053,0.135249,-0.32514036,-1.6339349,0.022951715,-0.19766667
0.07511144,0.11816948,0.2484406,-0.04348752,-0.18495,0.45846656,-0.1253415,-0.14431503,-0.50664234,0.04352045,0.4623808,0.5507255
0.19392188,0.030469788,0.16531935,0.49882033,0.098590955,-0.60573304,-0.3761768,0.46662468,-0.5719895,-0.8504667,0.5716392,0.62298566
0.2310135,0.1744279,0.14789647,0.13990375,0.46197563,-1.272258,0.25469053,0.51927984,-0.15142977,-1.3416495,0.24170303,-0.10812259
0.21997404,0.07339881,0.13545206,0.33644736,0.2594884,-1.0932612,-0.16261107,0.6581193,-0.49566263,-1.0597094,0.31874967,0.19634181
0.3448885,0.029544165,0.08845845,0.5537834,0.5772956,-2.1053143,-0.22537205,0.6191724,0.075798094,-1.4805528,0.31396568,-0.11635548
0.21641591,0.124920905,0.13759941,0.06636058,0.29001868,-0.72822386,0.017833054,0.6487409,-0.41887692,-0.8569516,0.09092622,0.12855572
0.19899943,0.030249463,0.1706333,0.09391907,0.0057897167,-1.5624691,-0.48983794,0.48537314,-0.5523888,-0.6047627,0.14122272,-0.47028714
0.09885907,0.14805968,0.184185,0.07805513,0.021435514,-0.10643705,0.24037296,0.37260455,-0.623676,-0.3128879,0.2656787,-0.043302476
0.1952673,0.13554287,0.16248477,0.08261821,0.2004019,-0.81710786,0.08120906,0.5264938,-0.400212,-0.96294487,0.118141405,0.079090536
0.22326933,0.020733971,0.1826953,0.14713433,0.076310724,-1.2392371,-0.46842927,0.42211747,-0.40301323,-0.69498736,0.15049696,-0.06927079
0.35269457,0.11669818,0.067474514,0.18710889,0.9393932,-1.1651553,-0.005743742,0.6312632,0.14469194,-0.55302787,0.20157456,-0.46620908
0.14630689,0.09482719,0.19188635,0.12663245,-0.17441991,-1.1363689,-0.15226835,0.33466476,-0.55440015,-1.1659963,0.16310716,0.15429312
0.12417635,0.09487847,0.2858066,-0.15674512,-0.40043718,-0.8270603,-0.29546207,-0.20660098,-0.16621679,-0.4118458,-0.06003262,-0.083323
0.12494216,0.08782468,0.27148837,0.17481129,-0.22140786,-1.4604741,-0.21012694,-0.12986091,-0.26914507,-0.79444766,0.3013259,-0.51825255
0.21376312,0.058604028,0.20841312,0.42084798,0.1934663,-0.47888628,-0.21652213,0.25384408,-0.3031207,-0.83410317,0.49253783,0.60404557
0.16526802,0.17561975,0.25025722,-0.044380482,0.14483601,0.09307338,0.26762146,0.07769017,-0.0700016,0.029127836,0.14375198,-0.20691207
0.10009453,0.07842665,0.23232135,0.15806732,-0.50384206,-0.7391088,-0.33583403,-0.026384905,-0.49704468,-1.3111609,0.30394566,0.7886916
0.34761152,0.12409973,0.08012042,-0.028875684,0.7300436,0.044929978,-0.0087502,0.61173964,0.17185068,-0.47290754,-0.06007924,0.5043668
0.3268085,0.04631393,0.1429365,0.45961174,0.45301184,-1.9839723,-0.18492246,0.44201332,0.09450179,-1.5037965,0.31759253,-0.09948307
0.19328365,0.08766017,0.2784487,0.15796742,0.1796707,0.0383762,-0.1610418,-0.08414982,-0.06762314,-0.34461343,0.376217,0.54864246
0.14716241,0.107314534,0.16897044,0.241303,0.20554473,-0.14501181,-0.02434349,0.4478529,-0.6674348,-0.5073707,0.49054196,0.38552886
0.05325243,0.11712079,0.22042352,0.12281986,-0.25898308,0.29434326,-0.011030555,-0.03625062,-0.6504168,-0.28674686,0.4430245,0.5338364
0.1491534,0.06840766,0.18883316,0.030777805,-0.1532943,-0.68811136,-0.3895861,0.31943297,-0.64611536,-0.41753542,0.21402377,0.10251677
0.18628615,0.04834588,0.26946282,0.19526893,-0.046175204,-1.0212573,-0.37276754,-0.04840462,-0.15522695,-0.71950996,0.30408543,0.046104014
0.27525347,0.21868274,0.09209056,-0.24241884,0.6550647,-0.39664635,0.30715328,0.6238541,0.06481463,-0.6554997,0.004493557,-0.1300422
0.08191064,0.11260455,0.26972356,-0.087270305,-0.47930387,-0.43547156,-0.17490554,-0.20518829,-0.31688938,-0.11469841,0.035752773,-0.12561864
0.21334246,0.042003453,0.30541974,0.13727029,0.03223362,-0.39259532,-0.37973857,-0.19993716,0.1318937,-0.66169834,0.18839821,0.647116
0.3063164,0.093649365,0.13930258,0.5867255,0.6723867,-1.6153879,-0.015978396,0.44931245,0.0033299327,-0.98398674,0.5330096,-0.29671153
0.2008746,0.06295329,0.16100104,0.016674493,0.01344604,-1.7107008,-0.33015794,0.5474941,-0.53338754,-1.232142,0.012100339,-0.14820829
0.29945964,0.10185406,0.11253308,0.2670353,0.643728,-1.58925,-0.03916025,0.62053347,-0.11595976,-0.8664618,0.24847117,-0.5440133
0.13990368,0.1165736,0.2422233,-0.020606816,-0.023814814,0.5160537,-0.073960096,0.05933346,-0.37362346,0.06582236,0.28960598,0.5274078
0.35213244,0.00032163225,0.10720773,0.28336895,0.60640347,-1.7413874,-0.36050647,0.5616739,0.098617315,-1.4770558,0.01399833,0.19014221
0.13151899,0.1323517,0.2665338,0.06333995,-0.1288042,-0.63173485,0.075593054,-0.036884934,-0.19042203,-0.51420736,0.10774926,-0.20322952
0.0963297,0.09255608,0.22600187,0.47345147,-0.24286026,-1.0490007,-0.043510765,0.037835523,-0.49514562,-1.1863071,0.5101063,0.01207155
0.12879902,0.14925328,0.24538523,-0.023472728,-0.18655762,-1.181108,0.14827126,0.07895921,-0.24662668,-1.3068715,-0.052035037,-0.016087353
0.16123155,0.11935817,0.25157276,0.11259776,-0.048676927,-1.3010805,0.0065836906,0.055499956,-0.2032952,-0.8551189,0.14883524,-0.46358967
0.21897382,0.041261278,0.18665765,0.35218084,0.24164324,-1.2504419,-0.33122957,0.3720072,-0.41651997,-0.5667025,0.46116862,-0.31489602
0.22695522,0.17941734,0.1845697,0.23550725,0.72494364,-0.7215974,0.30845225,0.30492032,-0.067399144,-0.75439596,0.56680506,-0.13716167
0.17094997,0.0585346,0.29889378,-0.023283958,-0.17376952,-0.2870646,-0.41370907,-0.20174882,-0.03553748,-0.6152984,0.08414098,0.73820204
0.24966952,0.1470784,0.12177846,0.28680313,0.55083317,-0.39190385,0.16178936,0.62619776,-0.20897079,-1.2541839,0.34591892,0.8531359
0.07698569,0.11683372,0.2019421,0.3128341,-0.17337035,-0.67277515,0.11201948,0.17859675,-0.639035,-0.88122267,0.37412807,0.002471447
0.15550812,0.06153703,0.1990824,-0.22943698,-0.23430054,-2.0243936,-0.5167298,0.2547874,-0.5782593,-1.6488155,-0.07795151,0.18095124
0.20087321,0.043157008,0.19340083,-0.09219496,-0.063679166,-1.9940429,-0.46591341,0.36036915,-0.43902516,-1.2172637,-0.05705437,-0.30581978
0.12564424,0.16435869,0.2852139,0.015442507,0.11676858,0.5894326,0.2851094,-0.11424417,-0.054433048,-0.17241728,0.28044197,0.47359627
0.3060855,0.0020919861,0.19680712,0.17973556,0.31496978,-2.157561,-0.40773076,0.27971506,0.071664214,-1.325601,0.034232065,-0.38971204
0.087689124,0.11329637,0.1916323,0.525751,-0.2140101,-0.54677606,0.16869807,0.259072,-0.58438194,-1.5848039,0.46434525,0.73393804
0.13240808,0.15821911,0.1714247,-0.03614779,-0.06922051,-1.1785699,0.20147473,0.48489648,-0.51759523,-1.054239,-0.05657264,-0.32374924
0.2650046,0.09798481,0.11908029,0.29887518,0.39393482,-2.177894,-0.042628676,0.66665816,-0.24578491,-1.5706118,0.25814626,-0.4491477
0.3548499,-0.04208138,0.0822344,0.46859288,0.72015333,-0.606761,-0.4767993,0.63918716,0.057932913,0.007532954,0.13856208,0.04135567
0.16437273,0.14797741,0.30171502,0.01895959,-0.02163088,-0.8669351,0.13562816,-0.17557232,0.13724256,-0.83593297,0.02137234,-0.16713926
0.2847987,0.09705677,0.1687554,0.04193097,0.3710531,-0.50217986,-0.1009025,0.42113072,-0.05707854,-0.24810731,0.009538569,-0.1448676
0.03434827,0.111012004,0.24239227,0.48591435,-0.25067624,-0.9392276,0.22049451,-0.12543125,-0.48008117,-1.0794759,0.45466533,-0.26575014
0.07202583,0.110661685,0.22823337,-0.36595523,-0.6086173,-1.9605203,-0.37644905,-0.13348335,-0.5501932,-1.3827143,-0.06401999,-0.06282276
0.24680671,0.028232737,0.19735083,0.057666093,0.11144012,-0.59181935,-0.41293246,0.34339595,-0.22839898,-0.65590644,0.012846097,0.48068804
0.087175675,0.13741933,0.2399952,0.008414724,-0.109028354,-0.41152483,0.122681975,0.0197756,-0.45535967,0.015639305,0.32638445,-0.54920566
0.32352892,-0.040319275,0.1091028,0.74721754,0.45775157,-1.1159799,-0.44374812,0.5788837,-0.04028392,-1.0038185,0.44205156,0.6218563
0.07725007,0.081799544,0.25701025,0.21742027,-0.6158879,-1.0811484,-0.3366989,-0.21557355,-0.38702458,-1.430378,0.3689007,0.50276023
0.06511763,0.10276466,0.21420316,-0.028102666,-0.61577815,-1.0570958,-0.27865142,-0.04219471,-0.63195866,-1.0943246,0.15458366,0.27718335
0.1425072,0.14028968,0.27165353,0.0029612698,-0.1938932,0.26652062,0.09357929,-0.045126036,-0.09299332,-0.26730788,-0.057242513,0.44100934
0.062213775,0.1366137,0.19522204,0.06647982,-0.41394937,-0.94718695,0.15355963,0.224254,-0.64333403,-1.6644294,-0.0014254302,0.55002016
0.16714107,0.062451843,0.28170633,0.055144954,-0.19278428,-0.5193087,-0.36395785,-0.12064982,-0.127752,-0.9437323,0.14718607,0.76822203
0.18138766,0.06388123,0.20823136,-0.017992327,-0.14007756,-1.0910367,-0.35776478,0.26943898,-0.4267454,-1.0201743,0.03779968,0.28562748
0.34506258,0.01708718,0.07548605,0.6884992,0.7526983,-1.5113775,-0.27032867,0.6660698,-0.0051035285,-0.77142036,0.38888562,-0.089220166
0.09257311,0.11567405,0.26295054,0.14756444,-0.30403137,-0.48480028,-0.007359147,-0.10536624,-0.3219944,-0.8722268,0.18716088,0.34135395
0.012493046,0.11272986,0.23759052,0.36655235,-0.5009339,-1.2220752,0.13991755,-0.1827185,-0.52929616,-1.0448899,0.2863881,-0.5021208
0.20818712,0.10529776,0.25933704,0.31180385,0.13713424,-1.3378168,-0.0040392876,0.01892142,-0.00053209066,-1.1924686,0.3325188,-0.116852105
0.18635935,0.06476958,0.18163727,0.35349855,0.18862951,-0.74264723,-0.24030441,0.38533616,-0.54153407,-0.616359,0.5168383,0.12428725
0.1409466,0.11252447,0.22051325,0.32095033,-0.10525668,-0.8722069,0.04676634,0.1855004,-0.37515482,-1.3773308,0.31975314,0.41129333
0.2064598,0.16004303,0.14504854,-0.016227387,0.29638192,-0.26836112,0.16798574,0.5971095,-0.34104323,-0.7117951,0.051356576,0.27735615
0.08054136,0.1393812,0.26174238,0.013216901,-0.39116478,-1.1613119,0.12995905,-0.08034192,-0.28787458,-1.0487874,-0.043037668,-0.23814017
0.22118637,0.15165012,0.13947672,0.36279926,0.52206206,-0.4324084,0.22134376,0.56538177,-0.27352905,-1.18138,0.45865116,0.6898337
0.3147155,0.07038773,0.11533618,0.021664431,0.5338355,-0.9064377,-0.19676396,0.6185196,-0.08013517,-1.4513394,-0.08186171,0.7251846
0.21907379,-0.0009279456,0.18609405,0.44734004,-0.054178532,-2.0737681,-0.47537893,0.37485445,-0.35260937,-1.2640876,0.44320598,-0.34184715
0.09077188,0.15267657,0.20337993,0.12468115,-0.159106,-1.1689675,0.28676426,0.27418935,-0.5015764,-1.0802526,0.08280844,-0.3937583
0.19555475,0.016587628,0.21954384,0.34209135,-0.14094287,-1.3151922,-0.46518907,0.19959249,-0.32533473,-1.199214,0.39652178,0.30136627
0.16761728,0.042455275,0.19321896,0.338729,-0.11961938,-1.8198805,-0.39108217,0.3090269,-0.5480124,-0.97688127,0.43665996,-0.515894
0.16012365,0.060484096,0.2248394,0.29249167,-0.21038729,-1.8256553,-0.29490554,0.14595263,-0.39593634,-1.2293344,0.35837966,-0.37507606
0.17013553,0.14438188,0.23620275,-0.03535768,0.3653773,0.5659198,0.10900617,0.11080043,-0.26944807,-0.01205802,0.5256392,0.4619338
0.22361599,0.056403033,0.24685769,0.23438022,0.16862409,-1.3220295,-0.27121428,0.08240612,-0.12399244,-0.5892788,0.32150257,-0.44537547
0.3268626,0.09774475,0.13450769,0.08701815,0.56801176,-1.926229,-0.07978642,0.48044235,0.091908336,-1.5423362,0.030168928,-0.26981595
0.28170285,0.015786821,0.15928066,0.43727726,0.16394342,-2.3145037,-0.3194971,0.46406394,-0.11225206,-1.6842132,0.35503584,-0.21117106
0.124497235,0.10098077,0.18337163,0.15445353,-0.18572934,-1.011387,-0.114328474,0.35124266,-0.65373605,-0.9192201,0.21710515,-0.01840061
0.31959647,0.061674953,0.14244974,0.060125228,0.45843074,-1.1529353,-0.21356964,0.49096948,0.016687095,-0.71660805,-0.06266916,-0.21934244
0.108611114,0.10091161,0.2599902,0.020586537,-0.3401965,-1.3456386,-0.1953837,-0.099489436,-0.34604606,-0.63320005,0.14212468,-0.53942823
0.1791503,0.06272575,0.3016497,-0.08694798,-0.17024474,-1.4458545,-0.3913639,-0.20348352,0.017632961,-1.2647766,-0.015191935,0.21906006
0.20975927,0.19808099,0.22567946,-0.07660807,0.30058464,0.29796398,0.31234437,0.16815601,0.072844744,-0.30462158,0.07146836,0.281242
0.18976933,0.105990715,0.2705076,0.005078044,-0.048610765,0.2984806,-0.10201472,-0.024293676,-0.04581225,-0.42200112,0.024402916,0.8220226
0.2160649,0.04309349,0.2638784,0.17851973,0.079980336,-1.0789642,-0.36124957,0.00108172,-0.0856241,-0.55881274,0.26203698,-0.15762231
0.16457126,0.09585517,0.24631718,0.068096735,-0.14723428,-1.3367242,-0.15261331,0.07103689,-0.26058012,-1.0279685,0.10392711,-0.16961128
0.17075594,0.16238758,0.25523245,0.24633774,0.42224914,-0.80048454,0.30239862,0.01926811,-0.041570306,-0.77033204,0.5008684,-0.2834651
0.27302608,-0.019271981,0.15094106,0.44527185,0.4828476,-0.97236294,-0.52043986,0.5178723,-0.31959787,-0.23207533,0.45017782,-0.097764075
0.27027464,0.017778907,0.21462056,0.25881013,0.27399212,-0.40044466,-0.38216934,0.23009606,-0.07034218,-0.59046674,0.23143104,0.6185084
0.24857503,0.07132103,0.16592196,0.10657647,0.25218603,-0.8698669,-0.2134732,0.49238193,-0.29605108,-0.5814209,0.087161176,-0.056715727
0.20717347,0.119694434,0.23430522,0.25422418,0.32155392,-1.1189423,0.04961735,0.13429753,-0.13384372,-0.6969727,0.40680593,-0.43008
0.17297459,0.1129735,0.13916838,0.13244136,0.17261122,-0.5143161,-0.025958091,0.67005587,-0.6331578,-0.7350054,0.18839553,0.26046395
0.18432473,0.1059999,0.17464057,-0.0006553113,-0.0059255594,0.65113235,-0.10887194,0.46990305,-0.47571707,-0.051240563,-0.00014784932,0.8112468
-0.0045236237,0.0904727,0.20744818,0.81430125,-0.6011347,-0.5565535,0.08566421,-0.20699584,-0.6330273,-1.5504843,0.5815015,0.3775788
0.15037319,0.16380376,0.1408964,0.05219527,0.170423,-1.3098646,0.26092225,0.6577608,-0.53435576,-1.2766137,0.09777684,-0.28392285
0.21919692,0.19602522,0.16846594,-0.051677458,0.46151373,-0.55131227,0.31100786,0.4254791,-0.10882741,-0.5896164,0.1666564,-0.26985157
0.13522232,0.07756187,0.22666813,-0.077678435,-0.34697604,-0.5829779,-0.37586182,0.0906346,-0.47364914,-1.0569143,0.065436445,0.8524001
0.19279945,0.09917368,0.16863973,0.21579838,0.41614696,-0.18326883,-0.0850234,0.45819032,-0.54353553,-0.31469417,0.5463331,0.25485748
0.24208473,0.10251388,0.15114494,0.08418431,0.29438642,-0.61508316,-0.08115235,0.5622166,-0.3139313,-0.8254422,0.07721109,0.31110704
0.2558501,0.025472645,0.22370718,0.20247895,0.41512305,0.110613026,-0.4076886,0.18080641,-0.15793282,-0.021368027,0.4364092,0.58255905
0.24730279,0.10287665,0.18352365,0.41585934,0.37581334,-0.4443097,0.005967021,0.356647,-0.14812934,-1.1247722,0.43229106,0.7965532
0.3105472,0.07407075,0.14479092,0.16266912,0.80319667,-0.36752164,-0.17222545,0.4657278,-0.099132836,0.028827429,0.44935325,-0.15746668
0.017066184,0.11527446,0.24501865,0.34523878,-0.5249693,-0.8897508,0.1450162,-0.19040072,-0.475897,-1.2174374,0.23378676,0.013888657
0.0473935,0.118933305,0.2551371,0.4836883,-0.17236565,-0.50879294,0.28774178,-0.122717515,-0.37398165,-1.1892846,0.4344472,0.24845374
0.09260476,0.15494077,0.21057594,0.0032825277,-0.2585465,-1.7028103,0.23595339,0.23026194,-0.46908605,-1.3359878,-0.05831623,-0.59639025
0.16934912,0.15296985,0.14209346,-7.046784e-05,0.19412541,-0.5493978,0.16324413,0.6487597,-0.5214958,-0.45293498,0.071548246,-0.25771388
0.28583488,0.12660469,0.1953025,0.024004139,0.47208875,-0.8370402,0.009946346,0.2727427,0.07867193,-0.21213317,0.123318665,-0.6244139
0.2853544,0.15583044,0.1651621,0.012733282,0.7698973,-0.6160819,0.12393594,0.36150694,0.021309197,-0.2506485,0.39357385,-0.46430105
0.25775725,0.18891278,0.17029075,-0.11185605,0.4176789,-0.65267026,0.22752863,0.37828094,0.056032956,-1.2259092,-0.008391283,0.3202393
0.13218951,0.092146024,0.18997471,0.22459432,-0.22236617,-0.7637123,-0.14074066,0.31904542,-0.5954766,-1.2609434,0.26127997,0.5781769
0.20592451,0.13919745,0.22019203,-0.016288364,0.06782255,-0.15304612,0.062036097,0.22915559,-0.13169098,-0.3959005,-0.031167362,0.17967987
0.113249145,0.04659358,0.22169942,0.3492444,-0.64415914,-1.1487321,-0.46819955,0.023532882,-0.48146838,-1.6439726,0.5428255,0.71603864
0.2582848,0.11537955,0.17576809,0.017287634,0.28651884,-1.0538917,-0.037664324,0.4167378,-0.12958157,-1.6028625,0.0059313998,0.589986
0.0760277,0.114015356,0.20682035,-0.27628136,-0.59656703,-1.7418511,-0.26424292,0.03415732,-0.634381,-0.99053013,-0.0851162,-0.37943977
0.2345337,0.15613037,0.2091045,0.10168859,0.30009148,-1.7878428,0.16184378,0.24949966,-0.0016735196,-1.3342261,0.14798954,-0.58208376
0.25592893,0.076788455,0.21341035,0.39049911,0.3903394,-0.8893748,-0.116457194,0.21446933,-0.07644397,-0.79906523,0.44022855,0.12670922
0.2935792,0.08899985,0.19058508,0.3821676,0.58771205,-0.12313734,-0.065556884,0.27029824,0.04178524,-0.72461104,0.4251078,0.8301516
0.00091809407,0.13238932,0.22439708,0.062591635,-0.38635248,0.0775956,0.25502223,-0.10734393,-0.6382927,0.11139095,0.3583854,-0.28635147
0.17777188,0.04379519,0.28799665,0.059142865,-0.20393309,-0.8678646,-0.44825763,-0.14216924,-0.06701785,-1.2339159,0.14882025,0.7935222
0.026595,0.1218304,0.21298826,0.30680957,-0.17536013,-0.111605726,0.2722684,0.018631727,-0.6672035,-0.5752938,0.4558451,0.08464354
0.14305234,0.10813688,0.17059943,0.22654088,-0.047001764,-1.0006838,-0.020837724,0.46396035,-0.6144005,-1.1380928,0.25078258,0.1357196
0.280301,0.0026824996,0.12811628,0.3585862,0.38720915,-1.4139609,-0.4181758,0.6366976,-0.29121315,-0.7466333,0.21307662,-0.15241742
0.2907761,0.22281744,0.060128473,-0.5662619,1.1259121,0.8333669,0.31564862,0.652062,0.048990786,-0.12687528,0.5007344,0.30749983
0.26977503,0.008345221,0.24221727,-0.001457427,0.14714319,-1.223757,-0.47035116,0.10957594,0.059766173,-1.0535309,-0.07800351,0.29426986
0.27561215,0.010776192,0.21077535,0.24373433,0.5531526,-0.5631244,-0.44320282,0.22201873,-0.13189644,0.081694484,0.50944954,-0.13405415
0.22420421,0.08762413,0.1984101,-0.0011702542,0.07052045,-1.4788796,-0.17963263,0.34165722,-0.2580504,-0.7610551,-0.019920357,-0.53880763
0.34928444,0.09863455,0.0753019,0.29230225,0.74875283,-1.1394972,-0.04402548,0.63048863,0.14557207,-1.5673689,0.1819253,0.6619838
0.28704065,0.040977262,0.22127143,0.11537573,0.26331535,-0.42383963,-0.29823226,0.18801965,0.07316029,-0.8872618,0.038400404,0.7808667
0.21097444,0.084872164,0.17547788,0.24531907,0.25719762,-0.015116852,-0.13667083,0.44466883,-0.42562863,-0.63979745,0.33809456,0.7951743
0.24728091,0.05292678,0.18182,0.43801206,0.4607359,-1.4680897,-0.23224819,0.36725694,-0.29995725,-0.5224128,0.56552607,-0.59927744
0.17801526,0.14232098,0.28262338,0.0520842,0.092554845,0.40743035,0.112321496,-0.0822338,0.046617925,-0.47138596,0.13666704,0.76780146
0.2858479,0.11018213,0.16682936,0.11344597,0.40142858,-1.3446665,-0.033201933,0.41431248,-0.018756568,-1.449153,0.09198383,0.17912322
0.16278197,0.067652754,0.29158306,-0.105444856,-0.24243952,-0.67829186,-0.3981226,-0.17743061,-0.081264615,-0.20735157,-0.0053811744,-0.059816778
0.1510712,0.10934238,0.25442985,0.45314574,-0.10021404,-1.5224192,0.07153982,0.012054533,-0.15301949,-1.5800232,0.4415621,-0.06874794
0.21265477,0.03442223,0.17702442,-0.0023225124,0.0015656041,-0.51340646,-0.46185282,0.45718354,-0.45432305,-0.83903396,-0.0037322938,0.7874746
0.2244566,0.04203801,0.22207196,0.2280258,0.021133643,-1.2618796,-0.3287276,0.21345873,-0.20226526,-1.1935226,0.22462994,0.2639647
0.12229665,0.1420732,0.1835841,0.23339957,-0.0036931129,-1.2060356,0.22545993,0.39870065,-0.5217846,-1.290914,0.23588058,-0.15502048
0.27661267,0.17694983,0.16251016,-0.100495145,0.42506772,-0.50897723,0.17330176,0.39444584,0.095171094,-0.33766174,-0.05714158,-0.37101945
0.24181221,0.061468735,0.28056428,0.09524026,0.15205583,-0.5577832,-0.26259267,-0.072744116,0.13159782,-0.4289695,0.12403288,0.14256245
0.11372413,0.11631493,0.27774397,0.42049056,0.10430544,-1.3044307,0.14284098,-0.15270415,-0.1839802,-0.8825633,0.5698173,-0.61692834
0.21042915,0.041824043,0.1468811,0.124108545,0.039530236,-1.7291625,-0.39232692,0.62719244,-0.5460228,-1.5391465,0.099398725,0.20880538
0.28125733,0.020788489,0.18841192,0.4185449,0.35125184,-1.3881994,-0.32458645,0.3287558,-0.09597826,-0.81422913,0.35381436,-0.14320353
0.30611286,0.1224693,0.19968715,0.048883315,0.8407919,0.2545616,-0.003331542,0.18473606,0.14661843,-0.061603308,0.5109104,0.34697503
0.12953512,0.067836255,0.22564611,0.18355723,-0.32712007,-1.3058313,-0.34958136,0.08123024,-0.49347436,-1.0655619,0.3166094,0.021462083
0.27485445,0.0629946,0.21774173,0.12287637,0.34044233,0.25346863,-0.22608232,0.21005537,-0.009703994,-0.23435068,0.16326779,0.738898
0.24912706,0.09632787,0.18364221,0.15874039,0.330741,-0.7116436,-0.087566406,0.38734555,-0.19927761,-0.6577344,0.19846877,0.07177067
0.33306593,-0.03817787,0.12697606,0.81027687,0.47062984,-1.6372014,-0.4154882,0.46667856,0.0625661,-0.98097134,0.5128356,0.08697373
0.20181106,0.0901463,0.30330113,0.11141992,0.0098630935,-0.7179349,-0.14577812,-0.18502945,0.15103805,-1.0682924,0.12420622,0.494834
0.1553895,0.151933,0.15030307,0.088359736,0.13371184,-0.8802254,0.19861853,0.60505307,-0.52692413,-1.2595923,0.11796946,0.19106585
0.20521623,0.05941481,0.15226687,-0.021036696,0.040909838,-1.5569023,-0.3580237,0.59867764,-0.5521534,-1.141988,-0.03741175,-0.058112502
0.19995928,0.0756751,0.2055094,0.29351956,0.1441666,-0.31621042,-0.17354855,0.2825287,-0.35890308,-0.77489316,0.37646484,0.6434477
0.22683515,0.18036592,0.23103303,-0.035074208,0.6465198,0.8239747,0.2543171,0.10543479,0.058531523,-0.2687378,0.4879087,0.8377233
0.21289006,0.19129732,0.21597734,0.02228067,0.41800216,-0.7940995,0.3139193,0.20670654,0.022949815,-0.72956884,0.21885234,-0.3566713
0.31049845,0.0218293,0.16788521,0.6137332,0.43914053,-1.9601464,-0.25782,0.35289222,0.034484863,-1.0552602,0.47208986,-0.42186797
0.2637227,0.03722772,0.20668854,0.2717663,0.35922238,-0.9085826,-0.31519783,0.26502752,-0.14289784,-0.4097123,0.33227515,-0.12578729
0.20764467,0.06433839,0.2510744,0.109448366,0.23014256,-0.9936609,-0.30245525,0.04830931,-0.2061761,-0.084056616,0.41140848,-0.59721285
0.19087873,0.07462738,0.2845412,0.35777554,-0.13388848,-2.3005514,-0.15015689,-0.114183985,0.05836004,-1.648165,0.3727852,-0.53697723
0.13943948,0.12218905,0.2980486,0.007499881,-0.18669812,-0.79152596,-0.018274784,-0.19150877,-0.020725608,-0.39665186,0.027855642,-0.37844628
0.24126956,0.18146892,0.18993053,-0.105674505,0.49734595,0.41917697,0.2196303,0.31249756,-0.02114755,-0.06277442,0.2164264,0.23749602
0.1582503,0.058172714,0.280193,-0.094091326,-0.2229259,-1.0356134,-0.47536525,-0.13998681,-0.18299466,-0.23593593,0.08443504,-0.31696898
0.05840174,0.13269661,0.22890961,0.011692834,-0.32457015,0.5963752,0.094318986,0.003848374,-0.5502312,0.08604419,0.22294417,0.41932505
0.053353027,0.14136854,0.28387487,0.16064492,-0.32338965,-0.8136853,0.27462357,-0.20215258,-0.2029086,-0.87528497,0.077974595,-0.25151917
0.18382733,0.079640575,0.2231013,0.16001278,0.24808085,0.15605167,-0.22967446,0.16236769,-0.40799356,-0.18725252,0.5324066,0.580841
0.24469893,0.033269323,0.12726465,0.4780023,0.30785692,-1.8864506,-0.30200619,0.6704978,-0.4443257,-0.98213845,0.40592965,-0.48734847
0.04456678,0.12181254,0.22798909,0.22797042,-0.47422683,-0.8680574,0.11330038,-0.025234267,-0.5359401,-1.1986706,0.15970609,0.11939275
0.14569367,0.1562867,0.14107196,0.14323816,0.1656676,-0.6885509,0.25717276,0.65592396,-0.5591686,-1.4105275,0.18141437,0.48541683
0.19891785,0.08759825,0.19631976,-0.013708837,-0.02298728,-1.6145191,-0.20330799,0.3525256,-0.37253845,-1.0303258,-0.010241471,-0.38063994
0.2597766,0.024735259,0.21107432,0.0404531,0.10980585,-0.86970276,-0.4081825,0.26780725,-0.1044147,-0.14085484,-0.047051195,-0.3189818
0.3020707,0.16273928,0.13171722,0.062763244,0.6882288,-0.018015897,0.14802444,0.47439772,0.09313989,-0.91325444,0.17986047,0.8120168
0.12193783,0.10223349,0.27625173,-0.079985216,-0.3585389,-0.42076996,-0.20995834,-0.14876473,-0.21788248,-0.12262714,-0.0003309697,-0.07367498
0.13000363,0.07083393,0.18903291,-0.014896016,-0.39436686,-1.3006,-0.40729216,0.27916163,-0.6514656,-1.5557177,0.14004648,0.638977
0.13465647,0.13951658,0.16126046,0.07954715,0.041039087,-0.938138,0.13546664,0.53663373,-0.61742264,-0.65245724,0.1391477,-0.42292643
0.06758037,0.09387989,0.23651567,0.2353508,-0.61857665,-1.2947952,-0.21025455,-0.11545194,-0.4882269,-1.5202949,0.3122593,0.26265997
0.30791208,0.18301594,0.106831916,-0.18751806,0.64558953,-1.6018088,0.17009884,0.5480624,0.132721,-1.2780559,-0.04691593,-0.57261324
0.24304299,0.06038089,0.19303218,-8.8567685e-05,0.08874688,-0.07161692,-0.28836656,0.3649512,-0.22449571,-0.42869377,-0.06087692,0.6436623
0.04105057,0.110683374,0.21498667,-0.128877,-0.7630065,-1.0991969,-0.3039075,-0.16339505,-0.6332023,-1.3063102,0.12274406,0.51321
0.3058704,0.1338816,0.11743608,-0.018208442,0.65386987,0.7131337,0.028110325,0.57207125,-0.018936872,-0.026290178,0.10098184,0.70590395
0.10014303,0.12451829,0.25972652,-0.021673724,-0.17545706,0.8413278,-0.020340264,-0.08272812,-0.35786557,0.06788385,0.26528728,0.79962665
0.17549358,0.08906048,0.16519693,0.11988974,0.23189978,0.32542086,-0.19212282,0.4897228,-0.64782506,-0.17550516,0.41485247,0.7013015
0.10974845,0.09599149,0.22771862,-0.17391472,-0.48322615,-0.9251928,-0.3172732,0.029519469,-0.49193594,-0.012752891,-0.048818592,-0.5520603
0.265473,0.1856394,0.17807707,-0.13508989,0.55736685,-0.2959638,0.21274137,0.32826978,0.07234794,0.00020956993,0.17119941,-0.54762936
0.2810168,0.16779022,0.10972422,0.0070470744,0.7537338,0.1983264,0.17038906,0.60735947,-0.078146815,-0.5163119,0.2478503,0.58136755
0.17681675,0.09742449,0.22319701,0.035263944,-0.113860495,-1.3434594,-0.14622775,0.2018988,-0.31869274,-1.3942693,0.052040853,0.1920327
0.17606679,0.12575763,0.15170836,0.49302047,0.17144862,-2.1228862,0.16881847,0.5496763,-0.43342793,-1.5942414,0.5103926,-0.6238827
0.15621427,0.12737787,0.20552103,0.17533931,0.3320509,0.079216965,0.08804482,0.2526391,-0.46037364,-0.37129378,0.56069314,0.37073416
0.072719865,0.09603713,0.22251037,-0.20508124,-0.5438316,-0.1423617,-0.50416225,-0.15479244,-0.63138425,-0.42823648,0.23667133,0.80822045
0.16969946,0.17787085,0.14884636,0.047500286,0.23168574,-1.807895,0.3073696,0.59199953,-0.38549945,-1.5603135,0.113771014,-0.5376213
0.08280143,0.12614049,0.26036176,-0.048145484,-0.5007839,-0.6711171,-0.01729089,-0.11224229,-0.3116774,-0.41100025,-0.08497707,-0.223138
0.127716,0.10266322,0.26801687,0.13584855,-0.25706056,-0.9356721,-0.104643404,-0.08191757,-0.23608038,-1.1381186,0.1736098,0.26431757
0.14382648,0.0948969,0.20771235,0.07031225,-0.029339904,0.24224344,-0.19255468,0.22301881,-0.5575834,-0.23386312,0.3274801,0.6550407
0.20710588,0.030918494,0.1822088,0.2993906,0.025093956,-0.66067404,-0.3979252,0.4109003,-0.4511343,-0.9802291,0.32101244,0.71586376
0.23356353,0.04268422,0.23056786,0.13327245,0.38097036,-0.75180393,-0.38347006,0.14638819,-0.23188397,0.052761316,0.4878846,-0.39424938
0.26320618,0.17945695,0.19359106,-0.09047795,0.78763217,-0.561033,0.21267235,0.23556848,0.065562546,-0.18513858,0.49393663,-0.61155176
0.27293968,0.17851606,0.17001435,0.08377657,0.4869247,-0.8240967,0.22114187,0.35097945,0.12821692,-1.6583825,0.17637098,0.67690915
0.27087006,0.090038836,0.20621243,0.054269835,0.28773078,0.07185002,-0.13028473,0.26613665,-0.016556978,-0.33160317,0.045184217,0.5434522
0.23691137,0.10058891,0.2534165,0.2306198,0.4245256,-1.0359313,-0.05583757,0.030841976,0.012800038,-0.4491533,0.44008932,-0.47677088
0.22953233,0.15333657,0.18556952,-0.10329548,0.49923596,-0.24684104,0.107363045,0.36139703,-0.20559931,0.11193907,0.35381714,-0.4956602
0.06781855,0.13742132,0.21023355,-0.007836346,-0.4542211,-0.90607643,0.112201095,0.14229141,-0.5659218,-1.1171534,-0.06247978,0.11280304
0.2476785,0.19999528,0.21327987,-0.1281346,0.8111295,0.3770237,0.30294263,0.13538714,0.14739239,-0.25909936,0.54267335,0.29919994
0.31085935,-0.0036025941,0.120679945,0.539703,0.5041256,-1.1049551,-0.37317735,0.588315,-0.13030827,-0.83830714,0.33277205,0.3085165
0.2455304,0.0025265263,0.16484252,0.18868011,0.14421912,-1.2914817,-0.49751374,0.50824285,-0.35406438,-0.9825149,0.11387139,0.20955938
0.14804254,0.075287454,0.2035745,0.22169892,0.03851335,-1.093047,-0.27479875,0.21943794,-0.5978271,-0.42017245,0.515333,-0.433138
0.16723192,0.09293206,0.18264827,0.13123298,-0.11216963,-1.9469692,-0.14551878,0.41145408,-0.5127959,-1.5139605,0.14563972,-0.30225396
0.08499774,0.11134562,0.25449273,0.17987657,-0.37506935,-0.46345288,-0.032788187,-0.09004946,-0.37489846,-1.112162,0.2002871,0.60506386
0.24821177,0.058561377,0.25448978,0.3443756,0.42872718,-0.8257362,-0.22409567,0.01565665,0.0022799373,-0.42437577,0.52673775,-0.09958172
0.09236254,0.13307029,0.22839352,0.3246282,-0.04618779,0.088397406,0.2466197,0.107665226,-0.4317024,-1.0141315,0.35825843,0.7988729
0.15951952,0.091940515,0.23662385,0.49877766,-0.04397395,-0.5761254,-0.019324005,0.088458166,-0.2600861,-1.3337685,0.51486593,0.7219755
0.0786973,0.1370607,0.19512226,0.055669058,-0.34675387,-1.127001,0.13677293,0.26064563,-0.614671,-1.0645616,0.0062921345,-0.2099486
0.29322284,0.17878753,0.12630802,-0.034793608,0.9288815,0.57973504,0.20138341,0.4749056,0.034796238,-0.33882868,0.43411705,0.7401225
0.20272574,0.040446453,0.14436355,0.20398617,0.14699252,-1.1807524,-0.40702316,0.6340469,-0.6302656,-0.54020584,0.24758077,-0.21820998
0.23617405,0.19565095,0.1269012,-0.095279984,0.47582316,-0.55737364,0.2809574,0.5988103,-0.13475978,-1.1868947,0.049372174,0.3362838
0.27439705,0.114717804,0.13629454,0.01473885,0.39519614,0.4490332,-0.039655566,0.57945544,-0.16211271,-0.07621229,-0.0219533,0.56749886
0.17883639,0.1377178,0.17722978,0.40032393,0.41020316,-0.2700863,0.20719963,0.40314645,-0.3823875,-0.9649077,0.55304927,0.5768309
0.1431034,0.16870601,0.28861544,0.02321407,0.009963477,-0.7095121,0.2733513,-0.11171869,0.057943225,-0.41354537,0.062347777,-0.56987596
0.15566355,0.066106856,0.2396054,-0.00061643345,-0.30057603,-2.2812357,-0.37514824,0.06829135,-0.35272998,-1.5391254,0.1082006,-0.38236475
0.27176183,0.033846922,0.17490605,0.116083674,0.3053606,-0.8583901,-0.35168165,0.43114454,-0.20168087,-0.0014663935,0.0965712,-0.48734334
0.15160309,0.16610554,0.19712678,0.054257285,0.110773705,-0.70999026,0.2668612,0.3471223,-0.34224725,-0.7472506,0.119678386,-0.22639331
0.046003044,0.13728186,0.26614377,0.07620044,-0.5236939,0.061587494,0.17863786,-0.16586068,-0.3023568,-0.3806615,-0.06459962,0.24894726
0.2339309,0.15945907,0.1271576,0.23164336,0.46011183,-0.61848605,0.21187007,0.6215266,-0.21963552,-1.5077155,0.29952607,0.7932908
0.31493077,0.06675095,0.18360549,0.19895066,0.6114864,-0.28635225,-0.17908537,0.29812282,0.07161862,-0.21291566,0.27301896,0.17976844
0.21158758,0.15233454,0.15631542,-0.028524276,0.2342795,-0.2380517,0.1224587,0.5422406,-0.30682623,-0.97173935,0.0009968877,0.60796934
0.07920136,0.10039781,0.25686106,-0.051359206,-0.54099524,-1.7481343,-0.28840268,-0.18986097,-0.402638,-1.0624211,0.11966886,-0.4147271
0.19329475,0.15874356,0.22183597,-0.011157253,0.100464426,-0.019907957,0.16399753,0.21999823,-0.12250197,-1.0056751,0.0064211413,0.8214733
0.3405488,0.051483598,0.1175368,0.0821984,0.55367726,-1.2028477,-0.23324597,0.54738057,0.077154994,-0.67046726,-0.08635178,-0.2929113
0.3086618,0.040002584,0.20203298,0.35029125,0.28363863,-2.3673515,-0.22912544,0.22643675,0.17138493,-1.6834445,0.26191318,-0.35166705
0.22552535,0.06356347,0.16585028,0.07978967,0.13516039,-1.4770389,-0.27753133,0.51348734,-0.41123664,-0.66657305,0.06317855,-0.52552915
0.19038679,0.1645217,0.19682273,-0.0020319277,0.1619821,-0.6436992,0.19965565,0.34340107,-0.21672198,-0.7455682,0.04426693,-0.09604466
0.13620266,0.10171191,0.2800491,-0.04147303,-0.24043596,0.26102734,-0.1857791,-0.1373817,-0.17979354,-0.060138702,0.07342813,0.5112538
0.14322996,0.050962634,0.19118309,0.041970037,-0.37135732,-1.2263906,-0.48992673,0.28751713,-0.6173858,-1.4927672,0.20736545,0.71393436
0.26911855,0.04404799,0.14272436,0.6334968,0.29058963,-2.1722054,-0.18736231,0.5250679,-0.20827863,-1.3232567,0.54649407,-0.47802323
0.1368359,0.08693556,0.2461694,0.24115668,-0.24350081,-1.9349796,-0.16602534,0.022831619,-0.33482906,-1.216053,0.29032406,-0.625323
0.0633319,0.10276531,0.2072893,0.0855645,-0.62140805,-1.1033875,-0.20563892,0.015113175,-0.64999247,-1.3959978,0.1909475,0.40914756
0.2640023,0.09040819,0.20424518,0.5562285,0.21364349,-1.5389704,-0.008907974,0.22444509,0.06958336,-1.635313,0.5411777,0.24818379
0.1788472,0.09343042,0.2717505,0.095672786,0.042186055,-1.0053933,-0.15439996,-0.049724832,-0.13039929,-0.35958254,0.25223973,-0.4973637
0.30674526,-0.008799046,0.14360966,0.4242057,0.33509496,-2.1684067,-0.39786205,0.5044713,-0.06399298,-1.3846356,0.23720494,-0.26041853
0.19676544,0.1400926,0.23681659,0.17164043,0.36426604,-0.539472,0.13511354,0.12237288,-0.12724,-0.55027294,0.40518087,-0.09314829
0.1562364,0.14075926,0.1645185,0.30108032,0.1859611,-0.82931805,0.21140397,0.50556225,-0.48186055,-1.2787148,0.34486058,0.27023607
0.1765367,0.10708561,0.29265618,0.09040856,-0.053651657,-1.6186124,-0.0716334,-0.13997085,0.03172517,-0.9964309,0.111917,-0.55806285
0.13048749,0.05924277,0.2599559,0.11050022,-0.40914845,-1.176738,-0.4368847,-0.09457048,-0.31932887,-1.2867467,0.27427867,0.46877903
0.23796484,0.16834271,0.15607494,-0.057900403,0.29818517,-0.013734732,0.16979873,0.49789655,-0.13119668,-0.07708001,-0.063335285,-0.11605227
0.17844915,0.15496461,0.29097003,0.29138064,0.31586498,-1.1164191,0.2615583,-0.14731431,0.17083657,-1.0271266,0.41378215,-0.29989237
0.30077082,-0.04159513,0.16827771,0.64959455,0.4244166,-1.706578,-0.49805903,0.37051564,-0.057792366,-0.6586292,0.48902985,-0.355365
0.3357707,0.06985115,0.11469102,0.41015366,0.7234174,-0.43261945,-0.12728864,0.53221434,0.04915744,-0.80824345,0.29819053,0.72702736
0.14660752,0.06869489,0.26078647,0.09545836,-0.06397443,0.12349958,-0.38098806,-0.07690501,-0.34558865,-0.28294027,0.4130731,0.7603218
0.11930721,0.15320809,0.19836968,0.07658176,0.043707315,-0.6969049,0.24285626,0.31990516,-0.4879132,-0.41882694,0.20979825,-0.52641237
0.33511788,0.08157454,0.10171461,0.099093124,0.6380738,-0.7870488,-0.13342634,0.60699713,0.04025829,-0.1829505,-0.0026395172,-0.4380765
0.10389437,0.13128677,0.2770918,0.14543715,-0.04441444,-0.027762597,0.13049406,-0.12969176,-0.22195238,-0.45521772,0.31873497,0.26924545
0.19282755,0.01435101,0.17883247,0.47029814,7.076778e-05,-1.4710044,-0.4675296,0.39456296,-0.5281465,-0.89967495,0.5427673,-0.13259894
0.15927885,0.07013461,0.18184394,0.13915905,0.0838738,-0.6948509,-0.33716163,0.35877466,-0.67697316,-0.23595142,0.4549733,-0.13264978
0.24487187,0.059961095,0.20244518,0.1921973,0.53648025,-0.83003736,-0.27487713,0.27005845,-0.28284886,-0.03522861,0.5794646,-0.4670867
0.04389271,0.11938513,0.21349972,-0.16466476,-0.70890635,-0.77733696,-0.18722382,-0.08826473,-0.62829435,-0.13477206,-0.008049972,-0.39387667
0.3065202,0.1242133,0.10674999,0.0026075894,0.5889288,0.49174067,-0.0038707852,0.6280155,-0.038893223,0.09623277,-0.00018917024,0.40017503
0.17861612,0.16468696,0.26257873,-0.016367745,0.2658452,0.33315444,0.21483201,0.008787274,-0.019551516,-0.14894891,0.2769771,0.26486027
0.3062001,0.030122757,0.15409607,0.23898517,0.48598224,-0.6374377,-0.30877852,0.468517,-0.08365446,-0.36841512,0.1602554,0.11069989
0.2535693,0.15714002,0.16367535,0.035671186,0.5167665,0.43516833,0.14472663,0.43791044,-0.10574335,-0.5283958,0.20360309,0.8457908
0.18255347,0.056689627,0.290203,-0.16624865,-0.14227483,-1.9131169,-0.4526257,-0.1521934,-0.051421642,-1.5985234,-0.085441925,0.15863544
0.11844042,0.08346477,0.2827435,0.019422008,-0.3646196,-0.62792975,-0.32653227,-0.20929232,-0.22285488,-0.9718951,0.15997154,0.6381399
0.13010074,0.068960026,0.21793152,0.53418857,-0.3799621,-1.6829221,-0.18380049,0.11933686,-0.42552355,-1.6164833,0.562388,-0.07694864
0.20477395,0.015375866,0.13327897,0.34562445,0.04888433,-1.1928194,-0.4773785,0.692061,-0.6249837,-1.1175967,0.31448263,0.4202779
0.18423691,0.15402144,0.27306318,0.16595146,0.34412724,0.32633778,0.21493137,-0.053903922,0.049072564,-0.6396339,0.38447812,0.7793829
0.19760382,0.15407175,0.20072354,0.20239036,0.2923364,-1.488171,0.20934975,0.3076917,-0.18863046,-1.0921857,0.28336626,-0.5602882
0.20054391,0.048851553,0.20977512,0.014044215,0.06540484,0.20146258,-0.41937196,0.26674354,-0.4103166,0.06647754,0.20947611,0.55581325
0.2214226,0.14918953,0.23041566,0.27947143,0.22575614,-0.7019247,0.18461162,0.14668022,0.05612153,-1.6410758,0.31112003,0.8182227
0.18691048,0.04416742,0.27269202,0.17033935,-0.122662865,-0.61071706,-0.39410728,-0.05947198,-0.12050599,-1.0084919,0.24149072,0.7629792
0.23413748,-0.008193633,0.13321821,0.40150473,0.09995449,-1.6106948,-0.5089191,0.66796696,-0.47425312,-1.2548254,0.31110227,0.20250636
0.1420824,0.0639452,0.19516431,0.047913834,-0.20197698,-0.52904916,-0.43024284,0.2607023,-0.64516777,-0.52887535,0.25304103,0.40075332
0.18050443,0.08399542,0.2030018,0.08541418,0.05498501,-0.6061117,-0.21687546,0.29671675,-0.4593155,-0.2982837,0.24527311,-0.094448805
0.26612306,0.08357385,0.15589136,0.053494453,0.31659928,0.49245375,-0.16200542,0.51893526,-0.21803993,0.0035785437,0.020041652,0.6594114
0.13471305,0.08412147,0.28462172,0.20260964,-0.24837677,-1.0853757,-0.20745465,-0.17080164,-0.15762436,-1.1210451,0.27149385,0.1773845
0.33882082,-0.038648166,0.08741049,0.36327845,0.5878852,-1.0865809,-0.49018112,0.6758406,-0.013832629,0.013173223,0.017617665,-0.49857306
0.26500738,-0.0079576615,0.21620771,0.56669,0.034431975,-2.0344782,-0.39570212,0.18821238,0.012827277,-1.4358928,0.5077509,-0.14081967
0.13488832,0.076362945,0.2761511,0.20375463,-0.19364423,-1.1504886,-0.27350658,-0.1465326,-0.23727661,-0.7965828,0.34702647,-0.14781284
0.16059318,0.1340628,0.25865427,0.39054742,0.114321865,-0.9530956,0.19482952,0.008984655,-0.07921451,-1.3144114,0.4185361,0.174716
0.15947366,0.16627008,0.1955652,0.082325645,0.08623946,-1.0345253,0.26371616,0.35598063,-0.3027758,-1.4832901,0.1021143,0.19131207
0.30833685,0.04968532,0.21722521,0.011832554,0.35765204,-1.166896,-0.2719937,0.17764564,0.17128962,-1.564116,-0.08347135,0.6566326
0.2042445,0.1480879,0.2745476,-0.040051185,0.07535831,-0.5050599,0.09770852,-0.04014565,0.12660033,-1.3431377,-0.033255976,0.73745805
0.15233262,0.058902428,0.20386744,0.10711867,-0.3271201,-2.1407003,-0.38483948,0.24746062,-0.51550186,-1.5762453,0.2161474,-0.22656688
0.15941279,0.103939675,0.23359764,0.03352757,-0.01709775,-0.49102154,-0.12602437,0.12548386,-0.36412215,-0.15685785,0.22859272,-0.21266827
0.30408615,0.06324509,0.11429624,0.5591117,0.60311526,-0.7346174,-0.13170078,0.5978891,-0.12319934,-0.9964431,0.44129857,0.66544384
0.18977855,0.06972586,0.2796464,-0.0020763979,-0.0014056552,-0.7207588,-0.31755733,-0.08655034,-0.09165722,0.008747935,0.17623043,-0.411811
0.33303544,0.07684306,0.10418887,0.066083595,0.5692511,-0.21046788,-0.15449932,0.6082565,0.03839159,-0.35930836,-0.07967137,0.3134042
0.21094765,0.037792474,0.28006414,0.14915153,-0.10358437,-2.0667696,-0.38492596,-0.07447292,0.020974338,-1.5008417,0.17716926,-0.19348821
0.1652237,0.07859908,0.23721218,0.07227445,0.15030494,-0.35645613,-0.29970366,0.06390162,-0.4216579,-0.04806435,0.5231944,-0.0076810718
0.32777864,-0.0005648304,0.18553117,0.20571105,0.45994055,-0.75773996,-0.39466342,0.2901482,0.14025044,0.024312496,0.07044598,-0.3394459
0.27798814,-0.016978156,0.14889167,0.34961903,0.1998323,-1.6763895,-0.47572806,0.5376647,-0.20239708,-1.5280924,0.2092449,0.39836735
0.27327716,0.0146377385,0.18506552,0.2975189,0.36207566,-1.303789,-0.39189053,0.36672848,-0.1805771,-0.42754066,0.28875622,-0.41811287
0.12532347,0.110114336,0.19533761,-0.026584217,-0.28559914,-1.1891063,-0.12419608,0.28881556,-0.5810915,-1.0399128,0.011123486,-0.022586346
0.10393935,0.16504022,0.2963778,0.036807775,-0.16448434,-1.4198012,0.30429232,-0.17111716,0.0069233775,-1.3191274,-0.01489532,-0.4068133
0.08880301,0.06925867,0.1977944,0.35678196,-0.5837585,-0.84323865,-0.35588956,0.089869276,-0.6635352,-1.4095201,0.490782,0.6700596
0.12825419,0.08259711,0.26113412,0.042606242,-0.009415486,-0.46870348,-0.3619374,-0.13496555,-0.40388262,-0.083132505,0.5466649,-0.03576982
0.10650251,0.13469972,0.2030026,0.048878882,-0.079811744,-0.12156847,0.10452694,0.2516725,-0.5719178,-0.17027235,0.23903236,-0.06422472
0.32431114,0.12336977,0.09162687,0.69329804,0.76857424,-1.0084937,0.09459001,0.55548626,0.11870396,-1.2712681,0.5792612,0.66350573
0.19993886,0.09269232,0.16269065,0.13258733,0.4664605,-0.57802916,-0.15469557,0.48795778,-0.5752619,-0.08782828,0.5705142,-0.30618393
0.08633623,0.117798045,0.22058092,0.6227003,-0.09386043,-0.4175601,0.26268256,0.10167225,-0.42927963,-1.5116277,0.5672895,0.7053122
0.1714222,0.171243,0.22755492,-0.010271716,0.06787504,-0.28889185,0.24285126,0.1936935,-0.13598007,-0.5390084,0.012395553,0.0071002245
0.13851865,0.10603224,0.16943556,0.4452324,0.019849803,-0.86946017,0.05657226,0.44503158,-0.5982902,-1.2709141,0.4680541,0.31459266
0.2991197,0.22718096,0.07366071,-0.6050882,1.1211231,0.16403185,0.3174349,0.56982994,0.12954032,-0.095228076,0.5073574,-0.4252888
