x,y,z,R,P,Y,t1,t2,t3,t4,t5,t6
0.16848187,0.16276465,0.21214458,0.039115053,0.21613932,0.25397375,0.230714,0.26408845,-0.26271296,-0.4094187,0.21833326,0.43698278
0.32373747,0.019657366,0.18017504,0.37492943,0.62450415,-0.16772613,-0.31491095,0.29952672,0.07211578,-0.29840803,0.35205263,0.5882195
0.113142796,0.078743875,0.23859686,0.24462834,-0.2878513,-0.74083143,-0.27305463,-0.017914563,-0.46905488,-0.87815905,0.40070975,0.2995679
0.11655187,0.105642445,0.26700336,0.20585124,-0.08512862,-0.9118189,-0.057611197,-0.10521051,-0.29886222,-0.5823207,0.388287,-0.32353556
0.18139824,0.093724936,0.26343107,0.0849476,0.0072106803,-0.97627944,-0.15220211,-0.0032337606,-0.15277821,-0.44275415,0.19441445,-0.3875032
0.22868496,0.15654251,0.16399339,0.038265593,0.43556696,-0.46649906,0.15622124,0.47135106,-0.21897414,-0.52589273,0.20036311,-0.075413465
0.23567508,0.0334197,0.25791696,0.24413842,0.2878533,-0.53782433,-0.37981817,0.017915264,-0.07202396,-0.2687556,0.42714286,0.14320597
0.21875018,0.0532919,0.19000247,0.10523899,0.29574,-0.10910971,-0.3540753,0.36476424,-0.4377637,0.018047571,0.38637346,0.24286434
0.22888647,0.1176681,0.18406028,-0.031588636,0.13875431,-0.36376712,-0.044692397,0.40579054,-0.22871566,-0.7554992,-0.05461449,0.4309102
0.22701482,0.11352097,0.23022705,0.010414748,0.12211298,-0.39235696,-0.051904023,0.1767677,-0.07380256,-0.20226765,0.019930057,-0.13734221
0.2632274,0.039226294,0.24761811,0.09195396,0.21967009,-0.07008858,-0.3394815,0.08216497,0.04377085,-0.10679197,0.11225693,0.3870904
0.16905399,0.089562036,0.26591387,-0.00937266,-0.15407896,-1.1390326,-0.21710965,-0.027003765,-0.17085892,-0.4871112,0.05132757,-0.43646803
0.19715662,0.06507554,0.2610402,0.0056191734,-0.034473166,-0.82856256,-0.3234564,0.01350905,-0.14748174,-0.15694666,0.10434298,-0.34934768
0.11423829,0.14204659,0.21860677,0.049667396,-0.18881446,-0.72373486,0.14494017,0.19760007,-0.4247002,-0.56902105,0.039252236,-0.30676553
0.23610927,0.09602507,0.18342458,0.32456252,0.2933501,-0.81226903,-0.046468675,0.38413003,-0.22816455,-1.073008,0.33818275,0.37916508
0.27089956,0.1002059,0.20206949,0.091301344,0.30002332,-1.3294173,-0.07939163,0.27939618,-0.004107237,-1.1087761,0.0708722,-0.118629485
0.29111838,0.05002138,0.18759286,0.13236085,0.40314788,-0.49065274,-0.2648486,0.3380337,-0.050182015,-0.107014775,0.13587034,-0.089576274
0.17006408,0.09875324,0.26453912,0.173393,-0.08633469,-0.780533,-0.092419654,-0.012556195,-0.13913375,-1.1549406,0.19706757,0.44561723
0.12805794,0.13293804,0.20845148,-0.01429825,-0.2324729,-0.13932988,0.045687586,0.2532121,-0.4534082,-0.66051006,-0.039814755,0.4796196
0.19977266,0.06741518,0.17903572,0.030570438,-0.013827697,-1.2509853,-0.2990974,0.44473293,-0.4655486,-1.1082203,0.03719704,0.15577462
0.14385575,0.08828954,0.25396106,-0.13278256,-0.33834365,-0.32461637,-0.2991699,-0.016678497,-0.29194832,-0.38389724,-0.05746845,0.38452592
0.19327377,0.10952079,0.1923233,0.26413378,0.15241137,-0.7095185,0.0027570724,0.3596857,-0.3514055,-1.0648422,0.29996312,0.3739464
0.16492294,0.14646599,0.19254054,-0.018992515,0.30835062,0.09713929,0.12883136,0.3484873,-0.4471218,-0.053142548,0.40736955,0.0174267
0.3226908,-0.0100784525,0.1502477,0.5761659,0.4777419,-1.2769096,-0.3700788,0.42393896,0.024319291,-0.9102323,0.36893332,0.21642175
0.14420155,0.113887586,0.24688306,-0.016743185,-0.095955215,0.37044132,-0.0865646,0.047575846,-0.32371747,0.046671152,0.17928699,0.4122897
0.27870506,0.09221427,0.22184211,0.09367932,0.39287496,-0.05877738,-0.11149508,0.17589152,0.0703944,-0.2738626,0.16072667,0.35067996
0.22079311,0.10937066,0.2304197,0.037229918,0.088479936,-1.6540968,-0.06468186,0.17811695,-0.10224438,-1.127256,0.034645177,-0.45932248
0.26176298,0.06532709,0.24871346,0.22601704,0.3237659,-1.1616008,-0.20073462,0.06153235,0.06684542,-0.5560804,0.27778804,-0.35816154
0.2597224,0.12641886,0.23275179,-0.0026836903,0.4837108,-0.45765963,0.0037668943,0.12206185,0.059776425,0.0020985603,0.30187964,-0.46424612
0.16202998,0.11008554,0.23692879,0.0068789585,-0.12269301,-0.006512771,-0.09041926,0.12308505,-0.29494712,-0.34135532,0.05334706,0.4233038
0.21343403,0.0783773,0.22915223,0.14955662,0.17079207,-0.08102931,-0.19552766,0.17433962,-0.22598219,-0.42499298,0.27260727,0.54940605
0.28388906,0.16551358,0.15901777,-0.014903033,0.54502636,-0.5524191,0.14981928,0.40274373,0.07167524,-0.76768655,0.09341754,0.07710746
0.21322222,0.16440696,0.22217925,-0.02727647,0.17884755,-0.19491115,0.17350611,0.20661807,-0.02911061,-0.90827596,0.0054236576,0.5377935
0.24569659,0.08027126,0.2451066,-0.013465237,0.085177295,-0.25604826,-0.19920208,0.102246284,0.023702025,-0.58725953,-0.05414451,0.52795005
0.14070173,0.14054982,0.17737435,0.19995819,0.05447297,-1.183989,0.18429568,0.44284776,-0.505533,-1.205231,0.2212544,-0.16408515
0.1326817,0.09961611,0.23933321,-0.12535256,-0.3470404,-1.3881233,-0.23390923,0.04537706,-0.38040453,-0.84668607,-0.047457375,-0.2794993
0.24608377,0.11526857,0.17297015,0.013240365,0.26053792,0.41641685,-0.041002154,0.44507185,-0.20134127,-0.12909317,0.017270349,0.58851945
0.25471982,0.10106579,0.25065887,0.017112251,0.15051591,0.0055657504,-0.09697068,0.064180195,0.12958717,0.054814935,-0.04237035,0.049236983
0.29951003,0.11464481,0.14913115,0.3932365,0.6825165,-1.4009193,0.031076074,0.4261352,0.008795083,-0.88098246,0.42321885,-0.3342861
0.24392776,0.15724431,0.15906574,0.111385055,0.46685266,-1.1321856,0.16731676,0.47021714,-0.13991562,-0.9783193,0.20987512,-0.2652632
0.21306571,0.14800662,0.17409998,-0.039980147,0.34234452,0.5993991,0.10168126,0.44678363,-0.29811573,0.017365098,0.19592474,0.47318467
0.20905557,0.17682303,0.15533659,-0.102771185,0.4795673,0.29475334,0.23074129,0.51770866,-0.29318756,-0.06454563,0.26535326,0.1053811
0.20967671,0.115474604,0.24780363,-0.039933342,0.0065451767,-0.9954002,-0.06057176,0.09362945,-0.05609584,-0.87836325,-0.052310634,-0.05735156
0.27548334,0.101377025,0.16500041,0.08628754,0.3852251,-0.57693714,-0.0766342,0.44816956,-0.11184996,-0.7485564,0.07480255,0.27377906
0.22698407,0.04232333,0.20924446,0.1458639,0.10113968,-0.91920847,-0.35731462,0.2818051,-0.27520284,-0.6255314,0.17189915,0.0713664
0.07307607,0.1296851,0.24482349,0.15506247,-0.11981807,-0.09379848,0.15398297,-0.032540053,-0.45401788,-0.37999123,0.36728168,0.0901005
0.14849699,0.14322607,0.17937115,0.024703208,-0.026420161,-1.2417672,0.12225154,0.44094482,-0.48604292,-0.93069243,0.02654352,-0.43413267
0.21552953,0.13061753,0.21162665,0.04977873,0.15752046,-0.2718998,0.04005006,0.26807398,-0.15629283,-0.9018897,0.07065621,0.59697556
0.19157156,0.06692281,0.26276436,0.13840248,0.047103,-0.616887,-0.2834843,-0.006165713,-0.16958624,-0.4364009,0.2857346,0.0956718
0.21831347,0.13865988,0.23851293,0.018026106,0.26426387,-0.19005005,0.069587916,0.1278486,-0.04267201,-0.19879663,0.18083574,-0.056913644
0.12449925,0.08138069,0.24388184,-0.112136655,-0.37790146,-1.2038289,-0.38998038,-0.026062503,-0.41969964,-0.67902654,0.070236444,-0.12329635
0.09623653,0.13311818,0.2762401,0.1733428,-0.059680853,0.2154549,0.1671662,-0.13015485,-0.22935131,-0.5443443,0.31378955,0.55838954
0.14287685,0.07518714,0.22285737,0.049042467,-0.27972695,-0.7670684,-0.3257371,0.13504565,-0.4707184,-1.0102491,0.15767388,0.5395
0.045487113,0.1300147,0.24773374,0.025708202,-0.5832417,-0.16040148,0.070311815,-0.123930424,-0.42138737,-0.42515725,-0.041927047,0.19158879
0.2145478,0.10841945,0.2466508,0.2106404,0.1584166,-0.5143016,-0.01902926,0.0888052,-0.05102083,-1.0195884,0.24112628,0.545002
0.18221903,0.070488445,0.23777318,-0.041956656,-0.14781286,-0.59894305,-0.3245484,0.11828858,-0.2866975,-0.47156966,0.016823038,0.19963732
0.21143137,0.061520297,0.2155473,0.06639919,0.14600441,0.039715234,-0.31675035,0.24293083,-0.33009714,-0.06980622,0.24713685,0.43037793
0.14985603,0.123690285,0.20070723,-0.0011362465,-0.12180854,0.18444923,-0.011355728,0.31124914,-0.45675337,-0.010638595,0.023692042,0.20649448
0.17462568,0.10328371,0.23585567,-0.017993622,-0.13299324,-0.32641587,-0.13227046,0.13662857,-0.2624228,-0.022585392,-0.0084056035,-0.17034978
0.19967316,0.10161603,0.24038741,0.18990077,0.24931885,-0.1553595,-0.06758633,0.10706827,-0.19690642,-0.45051408,0.390742,0.37892297
0.19808903,0.04387191,0.2601132,0.33837366,-0.012314285,-1.2447277,-0.32708517,-0.00014898181,-0.13766229,-0.9582659,0.3995571,0.015836
0.04010412,0.116723396,0.24666306,0.42936605,-0.31262416,-1.2516804,0.22048554,-0.11085954,-0.43788958,-1.2076385,0.34855354,-0.42421076
0.13289501,0.11790113,0.20098156,0.32081443,-0.052467152,-0.6646342,0.08794391,0.284262,-0.4798251,-1.2410667,0.3327896,0.44899103
0.122157216,0.14405812,0.23025534,0.1628673,-0.099961445,-1.380295,0.201911,0.15124643,-0.33074772,-1.2409286,0.1464379,-0.3619057
0.2069412,0.05128865,0.17303777,0.31278294,0.051168337,-1.8644078,-0.28604615,0.46188214,-0.45483932,-1.1393522,0.31379735,-0.42992726
0.080293864,0.10061569,0.23955412,-0.19224663,-0.55782783,-1.2199235,-0.36999252,-0.140176,-0.49971277,-0.6378465,0.06770331,-0.17011598
0.1537297,0.108441286,0.29113525,0.1342744,-0.13177009,-0.95131075,-0.05370587,-0.15074506,-0.03519678,-1.1667149,0.1523866,0.24718449
0.17866053,0.14990854,0.17653126,-0.04168486,0.050489243,-0.7616911,0.11896971,0.4586505,-0.37308288,-0.85983896,-0.046649843,-0.023387104
0.12604785,0.11717405,0.23817283,-0.059801795,-0.31434125,-0.5615433,-0.08409366,0.06933449,-0.36666164,-0.96966136,-0.037193865,0.5062934
0.24822865,0.13047852,0.1825589,0.092161864,0.45017365,-0.84342384,0.04623264,0.37401882,-0.149771,-0.4362684,0.2459489,-0.42036057
0.22116405,0.11716585,0.19285432,0.008101049,0.08282842,-0.2105595,-0.036126047,0.3654333,-0.2194789,0.0806551,-0.063091025,-0.25438198
0.25911856,0.11592874,0.24354026,0.21996373,0.4215946,-0.9279141,0.013550758,0.06798403,0.12950766,-0.74050677,0.3081389,-0.13271177
0.25249848,0.109193645,0.24971229,0.0090056015,0.27087268,-0.19531095,-0.067590415,0.06553018,0.09555787,0.08572829,0.110172465,-0.21298721
0.25859424,0.1508294,0.18696918,0.038331904,0.5929336,-0.58644927,0.11849502,0.31829008,-0.048109353,-0.30511838,0.33096224,-0.3741757
0.28000665,0.021989256,0.14891873,0.41865587,0.31505325,-1.8669105,-0.31715304,0.52303696,-0.20109028,-1.1571914,0.3000101,-0.27971762
0.22574747,0.08836175,0.23735788,0.117035784,0.36283764,-0.69999963,-0.15433969,0.12015474,-0.15803733,-0.13170648,0.41797304,-0.3935122
0.26420978,0.050752275,0.18288064,0.11534652,0.32570195,0.022253115,-0.2917997,0.39449647,-0.21056762,-0.07723689,0.16116662,0.41142026
0.02930564,0.13206366,0.24414797,0.13507682,-0.5377517,-0.7646028,0.18795237,-0.11097522,-0.4521822,-1.0374081,0.02081056,0.04240468
0.09750096,0.09425542,0.25305516,-0.07629804,-0.3170476,-0.068933055,-0.36217552,-0.15262958,-0.45757666,-0.1499027,0.29020357,0.442201
0.15001924,0.15387072,0.28687483,0.0743731,0.052627385,-0.11501723,0.2050167,-0.108325124,0.01839602,-0.5856171,0.1513914,0.2637801
0.17228834,0.099723734,0.26885,-0.02239687,-0.14827473,-0.9011688,-0.1563109,-0.031863898,-0.12199667,-0.27804065,0.004076846,-0.4652399
0.1415303,0.14576763,0.22715822,0.005693959,-0.1607471,-0.43889666,0.12897697,0.18086356,-0.29334018,-0.3052079,-0.04998055,-0.2622775
0.14593488,0.1353753,0.22252493,0.108479045,-0.04708557,-1.1989744,0.10776338,0.20177889,-0.33948475,-0.9173957,0.12939598,-0.398975
0.15047537,0.13862357,0.23219101,0.107116036,0.030932868,-0.32081503,0.12716779,0.15429285,-0.288571,-0.6323516,0.18706487,0.17860892
0.21767817,0.11905016,0.20883694,0.08879871,0.19901186,-0.5400033,-0.004049748,0.28074962,-0.19577923,-0.6450469,0.14375004,0.121653825
0.21535984,0.040585726,0.22470713,0.21204704,0.15489818,-1.2476773,-0.37532565,0.18828455,-0.28792077,-0.41029096,0.3503675,-0.45252705
0.2049646,0.079983264,0.20873995,0.06424786,0.009933081,-1.1564224,-0.2132469,0.28723058,-0.312146,-0.8997605,0.07751101,-0.04385221
0.13634285,0.10947398,0.25966507,0.18448222,0.034179885,0.060680594,-0.032412857,-0.036604777,-0.2911145,-0.474936,0.40964234,0.54071224
0.18867797,0.11637294,0.20006561,0.011070172,0.007333676,-0.49529272,-0.04486844,0.33378914,-0.34025314,-0.64417726,0.017867468,0.19375888
0.30175856,0.13272059,0.15858518,0.1639783,0.58428216,-0.739943,0.058974236,0.3916948,0.08810836,-1.0285407,0.19793792,0.32117024
0.2732099,0.01389928,0.21644108,0.36241835,0.38097522,-0.4359848,-0.38229838,0.20358968,-0.06822023,-0.44846642,0.3945008,0.47730222
0.1640581,0.1424462,0.21634549,-0.007997314,-0.05885417,-0.23199451,0.09490505,0.24720892,-0.28974667,-0.7238714,-0.020417564,0.39749494
0.14557582,0.08755263,0.28339657,-0.100842394,-0.29893222,-0.96442854,-0.2928521,-0.15334392,-0.14377841,-0.37924308,-0.019161284,-0.27607185
0.1505615,0.122311726,0.2060597,0.0069474573,-0.14360839,-1.6050451,-0.016717494,0.28246933,-0.4294414,-1.2102842,0.009904169,-0.37922528
0.188718,0.14261128,0.17374595,0.13908315,0.21707541,-0.5749475,0.13949957,0.46232882,-0.36196664,-1.0386056,0.19150646,0.34767172
0.1990197,0.07824036,0.18327072,0.003389713,-0.012223903,-0.5337309,-0.24973083,0.42223826,-0.43821582,-0.90324366,0.008028813,0.61917245
0.25294295,0.06486682,0.2401514,0.16075653,0.44401056,0.19601189,-0.2391847,0.09761959,-0.06138462,-0.09201145,0.43429458,0.56430686
0.2596817,0.03049371,0.24332085,0.14307643,0.3233385,-0.234743,-0.3813052,0.09637132,-0.03044042,-0.025647521,0.28664786,0.19582853
0.26470956,0.14891423,0.14837423,-0.03696706,0.40977302,-0.75657964,0.087016195,0.5103451,-0.099288434,-1.2476621,0.00089954585,0.39656135
0.18767975,0.1032741,0.19629554,0.12545268,0.1487562,-0.58021545,-0.08223763,0.341579,-0.4156874,-0.4500175,0.25839233,-0.042771786
0.111901,0.1263011,0.2087915,-0.04413636,-0.34087035,-0.83163005,-0.013146639,0.21300182,-0.510493,-0.7001996,-0.057739485,-0.105091125
0.21293925,0.10975546,0.17079568,0.009165181,0.12195078,0.4559131,-0.075002015,0.48591205,-0.36488396,0.034721375,0.0012656525,0.49675062
0.2378529,0.046996344,0.27581495,0.084078014,0.116443306,-1.106316,-0.3362018,-0.047417022,0.07323831,-0.3474434,0.11896695,-0.41724324
0.19467409,0.0596571,0.19244842,0.034773756,0.07618677,0.030783087,-0.3640537,0.35775372,-0.49167705,-0.024523735,0.21755315,0.42032936
0.1803078,0.13815272,0.19087917,0.05445478,0.17271675,-0.5873131,0.09198058,0.37701598,-0.37380683,-0.40124935,0.1780576,-0.27321696
0.19778532,0.11739342,0.1865277,0.0061272075,0.058182966,-0.18839878,-0.039739728,0.4057308,-0.35429746,-0.50070506,0.007919587,0.35232213
0.20674896,0.06454682,0.21062493,0.13509086,0.21099785,0.058255773,-0.29132363,0.25723717,-0.37717575,-0.18498492,0.36695617,0.54483676
0.3390502,-0.001712596,0.13761528,0.3555034,0.56376076,-0.5300343,-0.36728522,0.46622482,0.070780516,-0.627825,0.1412556,0.59226346
0.32087505,0.024336468,0.17057988,0.10740523,0.3901547,-0.549218,-0.33099532,0.3734381,0.07761389,-0.5550968,-0.056650843,0.35130194
0.27641517,0.06452215,0.21641302,0.067471385,0.2887349,0.2391555,-0.22867215,0.21900523,0.0063556433,0.022559285,0.0709517,0.45489904
0.19992886,0.08747933,0.17907527,0.20327872,0.17469028,-0.4533099,-0.13952097,0.43270794,-0.4496249,-0.6743655,0.28024936,0.37694988
0.19218685,0.12837128,0.15908541,0.29772577,0.32627332,-1.1763275,0.11464891,0.5227741,-0.42807314,-1.0024538,0.38013184,-0.22371975
0.08753012,0.116254374,0.27074704,0.04497735,-0.38284087,-1.1860113,-0.06038618,-0.16301118,-0.29332232,-0.70199454,0.09954646,-0.44715634
0.18685648,0.061276313,0.2555438,0.14304957,0.12552251,-0.8798561,-0.33656976,0.009156048,-0.25709698,-0.22599506,0.42386538,-0.3199957
0.20850125,0.06355535,0.21854468,0.16995266,0.17141336,-0.44844666,-0.277183,0.22067884,-0.32211155,-0.35453582,0.33342767,0.19202557
0.25763872,0.07444456,0.2001184,0.07079938,0.23333785,-0.38585472,-0.19949815,0.31391564,-0.13072923,-0.34887034,0.06333089,0.17280957
0.24681175,0.13660964,0.21442819,0.055608246,0.29045323,-0.34127486,0.06266013,0.22784048,0.003972888,-0.91089916,0.09009066,0.52341855
0.11160107,0.11175904,0.23341532,0.24961409,-0.1071194,-1.095665,0.016374141,0.06761955,-0.44529855,-0.76856136,0.3584082,-0.4038815
0.2600665,0.14476897,0.21111122,0.03479745,0.34054014,-0.8455538,0.08756417,0.22393,0.07686418,-1.0445421,0.07161905,0.1268219
0.22425771,0.104381815,0.23624666,0.13203798,0.20561671,-1.0771998,-0.06179762,0.14175972,-0.08924994,-0.6258858,0.19937752,-0.37279016
0.24611038,0.08413641,0.26216763,0.06559348,0.23642747,-0.6318006,-0.16703147,0.012460887,0.076446354,-0.15346003,0.1569575,-0.30244285
0.288702,0.13762051,0.13805494,0.014493124,0.5307939,-0.43291706,0.05007094,0.5183178,-0.039260834,-0.6414886,0.06324364,0.17174289
0.2086761,0.05226496,0.24541786,0.10675,0.017234704,-0.28409478,-0.34297815,0.095184624,-0.18770662,-0.5819169,0.17285123,0.6373267
0.2524254,0.16864455,0.19710141,-0.08599762,0.5992642,0.025638673,0.16887322,0.26610535,-0.0037703514,-0.07410681,0.34273893,-0.09225038
0.14775799,0.08142581,0.26281652,0.2702943,-0.08091297,-0.84152746,-0.18976402,-0.05599224,-0.26329243,-0.79049665,0.3997693,0.082407445
0.3206026,0.046982754,0.1411909,0.19604066,0.641438,0.122886814,-0.25137573,0.48962054,-0.045106173,-0.010594845,0.22215836,0.45071378
0.1369011,0.13277557,0.25078946,0.21080299,-0.028580835,-0.21970703,0.13918415,0.046838522,-0.23282936,-1.0213077,0.24055724,0.6402801
0.3159272,0.03804476,0.17101845,0.30078125,0.4207999,-1.9651607,-0.25058317,0.36429408,0.06489074,-1.224165,0.17168564,-0.39020917
0.13151687,0.07430251,0.23378105,0.15862688,-0.26766792,-1.0583526,-0.31158566,0.05045049,-0.4564862,-0.87776965,0.2982806,0.062940866
0.1799595,0.066544175,0.21135266,-0.11984976,-0.17200355,-1.2165748,-0.3785033,0.24778152,-0.4144402,-0.8891425,-0.059547577,0.065285414
0.19725168,0.083913706,0.22656476,0.2489077,0.12930064,-0.7889749,-0.14325844,0.17815915,-0.2727228,-0.72423905,0.3438781,0.08389881
0.19103776,0.094595335,0.18774456,0.15212822,0.055819474,-0.57150626,-0.11712775,0.39299807,-0.42144218,-0.95772314,0.17667586,0.50554085
0.26272017,0.01917696,0.2211552,0.30648857,0.16960542,-0.9227982,-0.364525,0.20111486,-0.05004731,-1.0694393,0.2508374,0.5542351
0.33189717,0.010236989,0.16440131,0.2822651,0.6858102,-0.5730966,-0.3609698,0.3624005,0.051196575,0.07007122,0.3197018,-0.185741
0.35169983,0.013045853,0.116506726,0.46784964,0.74451244,-1.2467843,-0.3056213,0.50600994,0.08330625,-0.4146493,0.2827446,-0.30473286
0.22579163,0.1138722,0.24049008,0.1019757,0.15079194,-1.2549328,-0.02391553,0.123256475,-0.027045608,-1.0365646,0.11297086,-0.1820505
0.3354734,0.010904979,0.14585298,0.17824672,0.4669017,-0.8486149,-0.35170752,0.44911918,0.091661155,-0.14717853,-0.04387747,-0.30901104
0.19344077,0.14646272,0.23296532,0.17213218,0.2037849,-0.9379344,0.16459784,0.15629756,-0.10184997,-1.0295801,0.2338808,-0.04981646
0.12525275,0.13466813,0.23986122,0.118239135,0.0006609428,-0.52706,0.1252748,0.085494384,-0.34854543,-0.44654799,0.2746467,-0.22128107
0.14594536,0.08826979,0.25807798,0.17237663,-0.17575361,-1.30452,-0.17919096,-0.020814613,-0.27225602,-0.9393258,0.2469929,-0.23048428
0.24645077,0.11868639,0.25390124,0.12862253,0.3341423,-0.8567677,0.0043423176,0.037541613,0.115232944,-0.59524775,0.22042488,-0.23457688
0.13246757,0.095951624,0.24920133,0.13048905,-0.18880501,-0.77305686,-0.15729345,0.0043993294,-0.35332996,-0.7196198,0.23837508,0.06409618
0.2715452,0.07260156,0.22074266,0.07899551,0.42896703,0.13027301,-0.20480365,0.19140232,-0.030140191,0.052854538,0.27461725,0.29824552
0.13288224,0.125013,0.24100868,-0.0067591304,-0.24409544,-0.6561815,-0.005433023,0.08072369,-0.3156829,-0.5194883,-0.010566674,-0.1298117
0.3035781,0.009683194,0.14219184,0.3704197,0.58744854,-0.8016373,-0.37618753,0.51790273,-0.16675746,-0.23429096,0.33640796,-0.063530356
0.18431762,0.13000403,0.2920825,0.15402871,0.10391172,-1.0801061,0.078106076,-0.13206333,0.10526711,-0.93680215,0.20020188,-0.21555111
0.24459517,0.08204666,0.21249813,0.08072016,0.22821587,-0.122031726,-0.17316,0.25841925,-0.14406618,-0.30007565,0.13023254,0.36267433
0.27280438,0.037699312,0.22867668,0.1351792,0.19424622,-1.8289192,-0.31864536,0.16702148,0.032933533,-1.1757504,0.070596814,-0.3147852
0.2997825,0.07539259,0.19983512,0.02449445,0.32887477,-1.4009095,-0.17915408,0.26364103,0.100191474,-0.7701666,-0.049924113,-0.45389852
0.278554,0.07037267,0.18726622,0.091526814,0.35706782,-0.4139076,-0.2007202,0.35273436,-0.08868131,-0.13646305,0.10477552,-0.058288902
0.22015952,0.08338098,0.27062964,0.2257242,0.18403764,-1.0711343,-0.13947794,-0.03289774,0.022014916,-0.7137206,0.29838789,-0.19808826
0.2022726,0.13208166,0.25450006,0.04609322,0.26522532,0.45505893,0.05030766,0.04815659,-0.062372744,-0.20773232,0.28300273,0.61821604
0.25009114,0.05153575,0.27308723,0.10732684,0.22457784,-0.8972041,-0.30049396,-0.040607676,0.10468453,-0.18474281,0.18525301,-0.3987563
0.19686733,0.14953737,0.23257744,0.16571294,0.29463348,-0.5944952,0.17823002,0.1515885,-0.0978809,-0.7855465,0.2967958,0.043162674
0.1114522,0.09701848,0.22875574,0.09832219,-0.372853,-1.558742,-0.1812571,0.06385648,-0.47768068,-1.2043946,0.16743079,-0.2243312
0.017471982,0.13123882,0.24498038,0.08398656,-0.4784697,-0.14552987,0.18012092,-0.16134968,-0.4949495,0.05408883,0.17140405,-0.3971629
0.24241684,0.13202414,0.19816852,-0.024822574,0.21923822,-0.6937422,0.02210924,0.31775108,-0.088881224,-1.1327088,-0.021437924,0.411895
0.06651308,0.1269102,0.25969908,0.08384848,-0.3501723,-0.35984886,0.07006988,-0.12665626,-0.3727962,-0.36374104,0.15366861,-0.094738126
0.23121218,0.050280023,0.28889287,0.14605439,0.27196518,-0.27112377,-0.33008832,-0.12748712,0.07702124,-0.13042748,0.35781384,0.20822927
0.13410944,0.09256557,0.2766765,0.16308069,-0.18263252,-0.55408365,-0.16633318,-0.12832648,-0.21002838,-0.81127524,0.26156878,0.37647226
0.22319087,0.11870406,0.16203631,0.0068608895,0.24384312,-0.3951759,-0.030450165,0.5203289,-0.34418952,0.010270119,0.067800894,-0.37421688
0.30080447,0.02120913,0.20032838,0.4277851,0.44575045,-0.54869956,-0.3065739,0.24325472,0.04345244,-0.6977522,0.36069417,0.58851755
0.1884545,0.07221014,0.21419859,0.06533111,-0.03155018,-0.20445688,-0.27621323,0.24614114,-0.37856084,-0.53941077,0.13942577,0.6053988
0.3005254,0.05613337,0.20730135,0.11133881,0.3683562,-0.9254152,-0.23404907,0.23115447,0.09565276,-0.29567587,0.05947514,-0.37205675
0.054934084,0.116458066,0.24409476,0.028063703,-0.41683558,-0.21911633,-0.09783846,-0.15513743,-0.51266557,-0.2531227,0.26290596,0.10391536
0.23513663,0.09546162,0.16523944,0.219312,0.41803804,-0.12007466,-0.08464563,0.48005727,-0.3464538,-0.50149804,0.3476643,0.52418077
0.23555773,0.11119865,0.18215406,0.011126258,0.22461729,0.5017438,-0.062040567,0.4110569,-0.23517138,0.060867786,0.04907375,0.5039077
0.11870178,0.075865336,0.26392516,0.060796198,-0.29910675,-1.0528688,-0.38566092,-0.14066648,-0.356162,-0.6134955,0.29001945,-0.10426864
0.17714615,0.073690645,0.2781576,0.25749326,-0.009831907,-1.201161,-0.21293996,-0.093818575,-0.103295326,-0.8231056,0.34932894,-0.19167516
0.081694975,0.11103163,0.24689472,0.1702535,-0.17147215,-0.31512797,-0.041877985,-0.086593255,-0.47609726,-0.42952508,0.43090743,0.09180227
0.109374896,0.06536475,0.25220126,0.29210147,-0.4440544,-1.5972899,-0.36640126,-0.1103186,-0.3860284,-1.2291749,0.4345646,-0.17149064
0.07445924,0.12895766,0.26873112,0.22772533,-0.19243395,-0.0065934435,0.17831567,-0.12886971,-0.2957704,-0.77872425,0.26529723,0.5321517
0.29004237,0.09811686,0.20955384,0.03912128,0.34374243,0.023500096,-0.09467125,0.22119102,0.11560166,-0.48777014,0.010243483,0.61354995
0.24569458,0.17242591,0.21005383,0.0842241,0.50574297,-0.08631612,0.22211692,0.21033207,0.076664865,-0.75181663,0.2644443,0.49178085
0.26212022,0.07408902,0.15642245,0.3353123,0.37931344,-0.80297595,-0.13784873,0.5006615,-0.23747867,-0.9867463,0.30673128,0.42109647
0.1922942,0.09060691,0.17590168,0.28345367,0.19044733,-0.6898695,-0.09939128,0.4411116,-0.4765086,-0.79659563,0.36390126,0.22872558
0.30288154,0.049951684,0.17585416,0.12700166,0.45825103,-0.70077896,-0.25806051,0.37440458,-0.025834292,0.024449587,0.12577522,-0.43805903
0.1354273,0.09319694,0.2689059,0.06991643,-0.15952401,-0.9505295,-0.20699686,-0.095494844,-0.2695525,-0.42782044,0.24379025,-0.33968657
0.19442661,0.15333474,0.25413477,-0.0035163807,0.21197352,-0.050457593,0.14473578,0.0555923,-0.024741232,-0.14986742,0.18144749,-0.045280367
0.15704171,0.13153529,0.29058784,-0.007858491,-0.027713975,0.44075194,0.034995645,-0.13502797,-0.01439321,0.072353244,0.122314915,0.33417162
0.21650098,0.08544382,0.26221904,0.22762384,0.06967628,-1.3448464,-0.12499243,0.013682485,-0.000346601,-1.1971325,0.23268597,-0.013302445
0.19163813,0.14096524,0.20906751,0.079939306,0.31804365,-0.18756643,0.11343786,0.27012667,-0.27383083,-0.34768677,0.33108515,0.059298664
0.24229278,0.12609679,0.19385672,0.2353146,0.3607061,-1.1704134,0.06487408,0.3210355,-0.10584006,-1.0563757,0.27997315,-0.10911429
0.2263571,0.06477927,0.25919276,0.09767409,0.12435698,-0.91225874,-0.26359516,0.03244467,-0.04592377,-0.36846668,0.17047396,-0.27452552
0.16702533,0.08592483,0.22885129,-0.0013084972,-0.1795417,-1.5356804,-0.23751332,0.15479806,-0.35225913,-1.0657709,0.04659774,-0.23631412
0.17336819,0.13427329,0.19426191,0.007618767,0.0019096067,-0.6859356,0.05294481,0.36407235,-0.37315696,-0.6293389,0.01309742,-0.10956925
0.21348841,0.122131675,0.2320877,0.06596536,0.26626378,0.08032047,0.0039076805,0.15997043,-0.13750911,-0.2617817,0.2523685,0.34777048
0.25086486,0.0983701,0.24950147,0.06995879,0.3956363,-0.5078973,-0.10393146,0.058926612,0.03746456,-0.08050215,0.30530107,-0.30823332
0.2696941,0.10439498,0.18198988,-0.0071906783,0.27365255,-0.78106195,-0.08656761,0.37931344,-0.07248253,-0.71719897,-0.04605903,0.01704505
0.16860004,0.09107773,0.27394915,0.018808136,0.096334375,-0.24020429,-0.21925482,-0.08721534,-0.19354004,0.0071616173,0.3788762,-0.02682659
0.30690494,0.16181687,0.12187502,0.22216158,0.74763244,-1.0036008,0.16853842,0.4867737,0.119312525,-1.1535932,0.30362147,0.15803781
0.1582261,0.13311799,0.28162777,0.06264564,-0.0328695,-0.6209372,0.07084179,-0.086719535,-0.03653449,-0.6114528,0.104864046,-0.08506432
0.18531364,0.15093885,0.22541477,0.19007275,0.19970323,-0.6235862,0.19871417,0.19335705,-0.1445533,-1.1055874,0.2495165,0.30786493
0.31455228,0.10974336,0.1356587,0.097450346,0.83792573,0.40906787,-0.043518156,0.4751005,-0.02412495,-0.08567929,0.39203107,0.5898565
0.26208404,0.1528586,0.22115344,0.04121994,0.53878045,0.20175023,0.1245192,0.15482897,0.11332357,-0.36390513,0.28134185,0.46636227
0.25140852,0.053880133,0.23926497,0.061321516,0.1336148,-0.84246576,-0.29278588,0.13023514,-0.02017504,-0.50613064,0.04065252,-0.03835821
0.21338747,0.07922353,0.29336762,0.22438161,0.09017967,-0.5537376,-0.16111068,-0.14153339,0.12551099,-0.9700563,0.25024426,0.58593464
0.2789582,0.032459915,0.20259102,0.2216856,0.2495479,-1.4108163,-0.31544992,0.2824831,-0.041263282,-1.0858935,0.14282446,0.03384736
0.102797754,0.14249958,0.23310703,0.10731451,-0.2132408,-0.6303109,0.18373367,0.11232826,-0.3749898,-1.0974469,0.07225664,0.26342568
0.25832334,0.062195722,0.15974386,0.12420638,0.2555094,-0.9552613,-0.24001999,0.5156574,-0.2689814,-1.0643044,0.0644823,0.37204424
0.11116058,0.14333765,0.22101283,0.086454876,-0.011371878,-0.47641605,0.1871855,0.17704901,-0.45008034,-0.32885742,0.25900686,-0.3465991
0.22421904,0.11626542,0.2680158,0.028101249,0.27866265,0.30006135,-0.036267817,-0.017902806,0.052683294,-0.07014096,0.24533395,0.4107125
0.25886866,0.17031366,0.16249925,0.035664424,0.69987434,0.117142834,0.19964805,0.4048477,-0.06140843,-0.43554795,0.37485975,0.3946655
0.22404179,0.13552679,0.19074945,-0.008470758,0.38667688,-0.06712332,0.047380537,0.35588494,-0.23925737,-0.03756571,0.27019554,-0.07799578
0.3094727,0.099157706,0.15022963,0.38107875,0.67692167,-1.5000261,-0.029233038,0.41799918,0.027544022,-0.80542094,0.38598496,-0.46394643
0.25073215,0.09436054,0.1674062,0.17299819,0.35261157,-1.122925,-0.09293327,0.46617094,-0.24640006,-0.7138745,0.19800283,-0.27075163
0.16446479,0.14840135,0.19630367,-0.0064082392,0.0826927,0.67300475,0.13398555,0.3511711,-0.37744755,-0.04319012,0.10918425,0.58188224
0.1338284,0.09773684,0.2758224,-0.058060914,-0.30831447,-0.6618081,-0.22027048,-0.12599534,-0.20115459,-0.72909945,0.018533714,0.29455075
0.11784162,0.13753681,0.23624025,-0.012614145,0.06432642,-0.27350247,0.09444523,0.076633826,-0.4232245,0.016161442,0.41186887,-0.38337475
0.22110781,0.07225763,0.24137709,0.027664388,0.111597806,-0.6146593,-0.2539404,0.121527165,-0.14723414,0.009773135,0.14066724,-0.3689291
0.12075946,0.09108324,0.23728532,-0.08006618,-0.32391044,0.092030875,-0.3122212,0.011005551,-0.46119457,-0.21459055,0.12055656,0.62612414
0.121338814,0.14143857,0.21145384,0.091195635,-0.14565434,-1.3773222,0.15395066,0.24505678,-0.4321191,-1.1643763,0.07276973,-0.37981892
0.19360866,0.08272634,0.18908143,0.36662513,0.061766263,-0.76677305,-0.10868958,0.3677592,-0.3903188,-1.236613,0.3783769,0.58590615
0.18940169,0.083075315,0.2962632,-0.0032987061,0.02286816,-0.5578998,-0.24143189,-0.16299757,0.014781177,0.05130911,0.16985257,-0.3671705
0.2016725,0.15840715,0.21899736,0.022713786,0.27038908,-0.30087468,0.17402962,0.22436157,-0.12900329,-0.38700187,0.18064092,-0.081537604
0.09031889,0.09667699,0.24310465,0.31365138,-0.37665415,-0.6074211,-0.09734717,-0.051289134,-0.4294041,-1.2433293,0.34620273,0.59299517
0.23291765,0.087937735,0.26207614,0.3318614,0.23618709,-1.4540545,-0.081282526,-0.0020910949,0.06734145,-0.98128235,0.36501706,-0.3417084
0.18362029,0.07893065,0.1984528,0.2511851,0.054930545,-1.2952408,-0.17994161,0.31870845,-0.44129688,-0.8262009,0.32433486,-0.29682803
0.2816032,0.0931226,0.15627658,0.13421357,0.39063302,-1.68323,-0.09685466,0.481644,-0.11031872,-1.2177521,0.09213342,-0.32573462
0.10105916,0.10484815,0.24738568,0.23237422,-0.15178917,-0.17514218,-0.056866765,-0.043547615,-0.42778352,-0.64453447,0.40342492,0.4517471
0.24191672,0.11142501,0.23917612,0.018010452,0.24804685,-0.15186603,-0.0577085,0.1230647,0.003419578,-0.026815772,0.122224614,-0.06488785
0.24951874,0.03046077,0.23051769,0.18368517,0.19187972,-1.3253189,-0.37259483,0.16834229,-0.10214698,-0.5002207,0.20487575,-0.4315022
0.12454368,0.08355702,0.26238358,0.18894437,-0.16744462,-0.4944555,-0.24642423,-0.10225807,-0.3413288,-0.61703134,0.39050984,0.30330768
0.19318767,0.089651726,0.22886875,0.336279,0.034228392,-1.2784029,-0.0794265,0.16573858,-0.21935308,-1.2433298,0.35152078,0.041159958
0.32528272,0.030051192,0.19346254,0.30784166,0.65980387,-0.52723527,-0.29057744,0.23561752,0.12239021,-0.15220642,0.3624059,0.032091886
0.1899088,0.07510917,0.2673844,-0.018973028,-0.1039365,-0.5686255,-0.28038278,-0.019112363,-0.11396733,-0.36171436,0.029894032,0.07375416
0.12881994,0.15037864,0.22597006,0.05578507,0.08162031,0.13122357,0.20575497,0.17260617,-0.37052852,-0.26407075,0.27570987,0.18472162
0.17698197,0.0903306,0.22197822,0.15587947,-0.08284283,-1.5546173,-0.14478388,0.20405865,-0.32872105,-1.2044805,0.17769797,-0.22218764
0.12759094,0.13920023,0.29052117,0.106256545,-0.12096677,-0.6690856,0.1411955,-0.14761911,-0.044493973,-0.99491435,0.104219705,0.16978577
0.24984416,0.12083639,0.19788285,0.003323346,0.38423723,0.23415561,-0.019426048,0.31052917,-0.122778565,0.021516562,0.19652279,0.23230848
0.28286105,0.14827967,0.1782286,-0.0345329,0.4229284,-0.14210722,0.079591274,0.34217247,0.08075583,-0.7569911,0.0018173754,0.5281466
0.24976686,0.07982874,0.24361604,0.034906603,0.16603397,-0.6031972,-0.18851016,0.10631251,0.019259214,-0.06439233,0.044126667,-0.34721115
0.17163385,0.11422183,0.20915884,0.3739028,0.122613445,-0.60438293,0.07025254,0.25626493,-0.33306617,-1.1466577,0.41828227,0.48043028
0.23853846,0.1635174,0.22405419,0.18642463,0.47683662,-0.7365286,0.21456507,0.15122923,0.08940703,-0.9286823,0.32883447,0.05553779
0.20989336,0.06346575,0.20346954,-0.033760052,-0.032085143,-0.7213182,-0.32288024,0.31512994,-0.33370325,-0.76843107,-0.031391997,0.37073746
0.18442585,0.08475915,0.26838678,-0.012371675,-0.08402703,-0.459422,-0.23226704,-0.026117176,-0.12199977,-0.11488092,0.063921854,-0.11229646
0.2969569,0.053620104,0.15307193,0.18852831,0.47597262,-0.8390426,-0.23743248,0.4857497,-0.11867833,-0.37160778,0.1496449,-0.1739026
0.08808517,0.10837271,0.25029334,-0.02730888,-0.39086455,0.10369907,-0.18278982,-0.10487905,-0.43415558,-0.2898544,0.15607747,0.56965244
0.31455332,0.1074359,0.16300039,0.21166924,0.56450754,-0.83449554,-0.023978204,0.36643174,0.119656384,-1.0668604,0.18911289,0.3595877
0.2349325,0.13827598,0.1596317,0.12830095,0.36661994,-0.6451141,0.093565285,0.49849394,-0.22944164,-1.0512111,0.17650265,0.35726252
0.17444596,0.13066849,0.20494622,0.051102843,0.041808188,-0.79058766,0.04863006,0.30574375,-0.34405917,-0.6001275,0.09399864,-0.23903869
0.32585213,0.008697392,0.13765937,0.47480416,0.5018512,-1.8694333,-0.32034323,0.48318204,0.01191169,-1.0144825,0.27295136,-0.35069156
0.26535842,0.039809983,0.24581027,0.09467431,0.21736717,-0.33460438,-0.33288112,0.08983961,0.050219417,-0.17297244,0.097595826,0.18277022
0.15197256,0.13394773,0.21774009,0.0065453965,-0.11592306,-0.5951369,0.05499628,0.22960123,-0.3458016,-0.9601808,0.00016322732,0.30966005
0.25534382,0.16375013,0.22466518,-0.11415795,0.5402498,0.44852045,0.13806793,0.14121622,0.10100144,0.08541465,0.3092965,0.19009718
0.22553116,0.09048655,0.27182835,0.20039056,0.14315718,-1.5047414,-0.106381685,-0.033893555,0.078792274,-0.98825324,0.21818085,-0.3915776
0.12247628,0.12558204,0.28055245,-0.0135184545,-0.2884371,-0.0034612732,-0.00456962,-0.12768538,-0.1410999,-0.53378946,-0.022917978,0.53843987
0.22552755,0.09636334,0.27680293,0.170834,0.15349488,-0.99412894,-0.08709991,-0.057261147,0.1100027,-0.9281032,0.19367762,0.038351446
0.2697481,0.077203594,0.24135971,0.0259068,0.16894357,-0.25605726,-0.18610275,0.10355842,0.12277764,-0.10797012,-0.055865984,0.03952709
0.13591577,0.11304965,0.24773519,0.21290591,0.012519722,-0.08281836,0.007862002,0.031149536,-0.32798994,-0.6197232,0.37248802,0.49839005
0.23568228,0.033799775,0.26760057,0.40649882,0.05214617,-1.6033372,-0.3023744,-0.029553339,0.07425004,-1.2348816,0.392846,-0.046920985
0.123486035,0.13147643,0.22418979,0.020106602,-0.22461154,-0.60965735,0.05191791,0.1638796,-0.40475672,-0.47668803,0.017469868,-0.18812418
0.24160221,0.060064353,0.18540047,0.33607516,0.24190949,-1.2136526,-0.20793457,0.3807023,-0.26177353,-0.9476111,0.33091176,-0.00063571334
0.2849607,0.12330417,0.19761212,0.25507408,0.5385148,-0.7042322,0.045642793,0.2438654,0.10067016,-0.8947436,0.31245244,0.2591075
0.18327025,0.1045186,0.20001833,0.22850706,0.19377731,-0.5718245,-0.040128738,0.31102052,-0.40684548,-0.63353765,0.37054992,0.113583654
0.26508322,0.14124821,0.16248535,0.28699288,0.5782219,-1.1621292,0.12886277,0.41531238,-0.06339058,-0.98328424,0.37559855,-0.16450095
0.10356543,0.11432761,0.24820817,-0.046205398,-0.33236367,0.42925456,-0.117901236,-0.035872668,-0.39899004,0.050099015,0.09958038,0.5058987
0.24976647,0.11245718,0.17678936,0.036385294,0.43312848,0.5145067,-0.049255162,0.41408488,-0.22130263,-0.051421285,0.24191938,0.6244118
0.19125976,0.11621704,0.2725045,0.056609932,0.14554931,-0.5038116,-0.031241477,-0.0391045,-0.04441926,-0.22125375,0.23652612,-0.24935687
0.29526713,0.022878613,0.16984132,0.15302454,0.32324922,-1.1371533,-0.35387182,0.4231685,-0.07621315,-1.2435955,0.026934281,0.48978487
0.23403718,0.049841627,0.21501262,0.35788533,0.16312797,-1.6807493,-0.25247145,0.23354113,-0.18969038,-0.9670242,0.36536044,-0.4249989
0.11684427,0.092892304,0.24750422,0.2453646,-0.20581691,-0.45364827,-0.14308366,-0.023996681,-0.39586836,-0.8479091,0.36046344,0.4551241
0.20566756,0.1313192,0.19804002,0.06374232,0.26664785,0.2529737,0.05107063,0.3329584,-0.2766335,-0.34930474,0.22039284,0.5618994
0.19561623,0.12461663,0.19886397,0.1380486,0.17831117,-0.23083101,0.041780233,0.33275658,-0.30519345,-0.77875906,0.2046131,0.52049756
0.20028903,0.10168037,0.17496496,0.21343906,0.13569786,-1.4102654,-0.05515328,0.4580643,-0.4053618,-1.1296285,0.22540118,-0.20552275
0.24565022,0.03431832,0.22064233,0.08152336,0.08777753,-1.1863587,-0.37853307,0.22576898,-0.1354604,-1.1080242,0.048050255,0.305725
0.24141687,0.056079753,0.25790203,0.105149314,0.0787727,-1.8381544,-0.27896637,0.040784925,0.03239155,-1.1888472,0.08514786,-0.3632978
0.12961952,0.08717711,0.22821182,-0.1398258,-0.37098947,-0.26484063,-0.34072742,0.07416965,-0.4673656,-0.53987056,-0.0024741367,0.6422906
0.22181736,0.16805908,0.25154242,-0.111503296,0.4339009,0.6454185,0.17412344,0.041077957,0.082200706,0.083612084,0.32415307,0.36137858
0.13201237,0.12154914,0.284113,0.14266802,0.024397153,-0.51965886,0.03891945,-0.14235455,-0.1477691,-0.44329453,0.3398645,-0.13456672
0.11554551,0.15042685,0.24856764,0.11806757,-0.10311588,-0.23295896,0.23308209,0.058385015,-0.25584176,-0.9176729,0.113851175,0.4365969
0.23265177,0.14448659,0.18199918,0.003311414,0.25414544,-1.0128589,0.08662745,0.39734855,-0.15535924,-1.1564056,0.027255468,0.060378045
0.20860606,0.073018365,0.2743973,0.061676107,0.026666332,-0.22476982,-0.24818024,-0.043365628,-0.02287519,-0.461479,0.11971299,0.483947
0.2339128,0.10929118,0.21024384,0.32929158,0.25494874,-1.227768,0.017176509,0.2482988,-0.0955182,-1.2524005,0.34053612,0.07513878
0.17565094,0.07447405,0.21756962,0.048442513,-0.07627867,-0.48637995,-0.2865976,0.21548948,-0.4113415,-0.46427745,0.15212515,0.25598606
0.31204033,0.09811663,0.17843983,0.053043626,0.58920217,0.49936336,-0.09006977,0.3195354,0.08987391,0.03362441,0.18196692,0.5706091
0.19848661,0.0995336,0.18855971,0.13605241,0.113403656,-1.0086244,-0.09305975,0.38951263,-0.38779217,-0.78605807,0.17567311,-0.12166476
0.12917209,0.15539625,0.23178634,0.0113172885,-0.13977374,-1.1958144,0.20105782,0.15577659,-0.28652635,-1.104892,-0.018852271,-0.29166937
0.22122172,0.07653249,0.23663503,0.08505476,0.15298219,-0.35221472,-0.21652411,0.14265165,-0.16341797,-0.2572136,0.19487946,0.12752965
0.18270499,0.09484887,0.20562199,0.1576292,-0.019268934,-1.1773939,-0.11600849,0.29473007,-0.3735648,-1.1186898,0.17670283,0.04950711
0.17857945,0.07485496,0.28277868,0.0041526332,-0.10658293,-0.84073114,-0.2927099,-0.10659957,-0.084087014,-0.36894155,0.09622939,-0.18260837
0.26471347,0.033258803,0.24363449,0.14165395,0.31683868,-0.064595185,-0.36008537,0.09407422,0.0048095584,-0.064450264,0.24735041,0.383405
0.21722375,0.14835557,0.2464265,0.11905564,0.32936957,-0.9133166,0.14518932,0.07915375,0.031307757,-0.67263776,0.2563966,-0.35712907
0.20034902,0.052307658,0.29660016,0.054002386,-0.078487806,-1.6785014,-0.3653182,-0.15854421,0.05539596,-1.0135069,0.09235525,-0.30584097
0.11727754,0.09844975,0.24942943,0.07182844,-0.26093915,-0.5925869,-0.1824795,-0.029774487,-0.39167145,-0.58352345,0.21027471,0.13957533
0.14082079,0.15126911,0.22284737,0.080324225,0.22159486,0.21271722,0.21612003,0.18721402,-0.35755616,-0.33080465,0.39033085,0.32555148
0.26988548,0.037206717,0.18865663,0.24718058,0.42180598,-0.53906375,-0.31957185,0.34854582,-0.189329,-0.2603134,0.32959306,0.10091624
0.27954394,0.10266502,0.16584393,0.38556254,0.4882618,-1.3877581,-0.006594807,0.4034483,-0.05451405,-1.1106181,0.37603658,-0.11238614
0.21053067,0.15774176,0.2428498,0.1577441,0.28822476,-0.7479171,0.201489,0.09690365,0.03958881,-1.0502374,0.23790435,0.13800123
0.25111198,0.09287786,0.22976452,0.048031714,0.4156866,-0.24477772,-0.13622293,0.15508074,-0.06886047,0.034732103,0.3321131,-0.13366145
0.21991849,0.051523376,0.2427699,0.098572806,0.03924908,-0.38435838,-0.33157095,0.11425215,-0.14969862,-0.65551174,0.13196473,0.60323393
0.20392758,0.078434795,0.24108468,0.055154,0.21429218,-0.4633831,-0.24379157,0.10258955,-0.24718514,-0.0026299953,0.36576533,-0.21109727
0.29281622,0.06052745,0.22423047,0.15584478,0.39493096,-0.7971358,-0.21548076,0.15625098,0.11365098,-0.37022674,0.16012043,-0.17222321
0.15230693,0.1016449,0.21950549,-0.028813181,-0.18948804,0.34784567,-0.1644956,0.19291997,-0.4214608,-0.07927704,0.037039034,0.5940206
0.2698635,0.02560873,0.17875373,0.086373776,0.21572797,-0.61402434,-0.38704553,0.4177703,-0.1813997,-0.5755218,-0.0050780363,0.3575736
0.18051752,0.13745527,0.25164506,0.055247474,0.20745984,-0.30566472,0.089259654,0.061015174,-0.137936,-0.25683987,0.28811872,-0.13515231
0.17660858,0.16176677,0.19095334,0.07457393,0.2490116,-0.44050884,0.22936365,0.3711811,-0.30673236,-0.66578436,0.20600666,0.009376526
0.16153257,0.076358974,0.290089,0.18185474,-0.17928763,-1.2086805,-0.23433556,-0.15948245,-0.0645363,-1.1888745,0.23326294,0.17380139
0.1967208,0.067681104,0.17462376,0.0025016423,0.0039473763,-0.654453,-0.31517088,0.4678099,-0.50576055,-0.027185917,0.042494796,-0.31211317
0.30090946,0.036691003,0.18798965,0.15675662,0.48061988,0.29881692,-0.3069278,0.32112586,-0.022120565,0.03800714,0.20471437,0.60502994
0.14343084,0.1326046,0.26534468,-0.026506193,-0.22020744,-0.4690846,0.034861892,-0.021172166,-0.14490917,-0.5619825,-0.062835485,0.06376049
0.1960199,0.11342128,0.22065014,0.1149119,0.10715673,-1.0955108,-0.025253117,0.22364774,-0.24392235,-0.70866805,0.17180371,-0.3565557
0.15883066,0.11471327,0.21593446,0.09451558,-0.092086285,-1.5498276,-0.028970897,0.23367628,-0.37564784,-1.0772265,0.10991244,-0.45486498
0.18473779,0.07044144,0.2768475,-0.05918534,-0.1658916,-0.415149,-0.32390136,-0.07249415,-0.08079699,-0.12037563,-0.022895098,0.034261256
0.18415546,0.10428526,0.2844176,0.22754812,0.030753339,-0.7011916,-0.037775636,-0.102132484,0.019982696,-1.0827096,0.25660282,0.4134654
0.2573767,0.09695718,0.24411151,0.063680805,0.23275799,-0.3958129,-0.10338315,0.0929929,0.087471604,-0.57981414,0.06902568,0.29826352
0.20401949,0.12399441,0.24458674,0.15768163,0.29366666,-0.431939,0.043185264,0.09111813,-0.10700205,-0.500097,0.34609514,0.047011107
0.22206889,0.100992955,0.1651324,0.009753647,0.12664692,-0.31923434,-0.11451474,0.51331735,-0.35604033,-0.1575532,-0.030728448,-0.046927482
0.095851585,0.12167134,0.23271586,0.2870895,-0.119274445,-0.44492242,0.12619469,0.066854015,-0.44627684,-0.8982957,0.34415567,0.25878075
0.18069226,0.06318688,0.20763026,0.19987436,-0.028275093,-0.8974588,-0.29387352,0.2651619,-0.44131616,-0.7766496,0.286615,0.15252838
0.053713895,0.12990579,0.25901717,0.12754655,-0.44488686,-0.4907664,0.13135764,-0.13269328,-0.3601495,-1.0302716,0.067066014,0.364854
0.20096232,0.081897035,0.17261156,0.12622046,0.16842023,-1.068783,-0.19763999,0.47258446,-0.4924923,-0.4031127,0.22827874,-0.4582565
0.2519947,0.16033986,0.2207482,0.09493606,0.42752022,-0.91170865,0.16939452,0.16750574,0.1199556,-0.9072281,0.19794591,-0.1304074
0.17536311,0.10613875,0.21294366,0.29096478,0.15077172,-0.5705865,-0.0075671077,0.23808312,-0.3601664,-0.8144055,0.39887553,0.25569972
0.24347463,0.036705833,0.27257952,0.084350415,0.05845894,-1.4062107,-0.36758375,-0.03019701,0.0962559,-1.2532046,0.060555637,0.21894726
0.17028697,0.15614273,0.2609375,0.011781599,0.1684675,-0.18296264,0.18197218,0.020845667,-0.06944099,-0.19587564,0.21628024,-0.16908872
0.1693469,0.11495544,0.2247171,0.001082232,0.03801823,0.3289941,-0.06359142,0.18838298,-0.3491164,0.006767392,0.198748,0.38594654
0.30952415,0.011233233,0.18797505,0.13486601,0.34573966,-1.5614396,-0.38261986,0.31660134,0.057406068,-1.160533,-0.01000287,0.003562212
0.18624653,0.090874456,0.21918997,0.22037974,0.17328812,-0.7534531,-0.12383738,0.20641929,-0.35475606,-0.5179678,0.39906263,-0.10711539
0.26189154,0.17818767,0.18041798,-0.09362079,0.50990754,0.64677435,0.19341317,0.33325356,0.045653045,-0.099171996,0.13928726,0.53080106
0.26262522,0.023913972,0.21860296,0.23789333,0.17713211,-1.421473,-0.362974,0.21923253,-0.067044765,-0.99937093,0.18447752,-0.025994956
0.060971137,0.1278029,0.24818665,0.05844537,-0.22598733,-0.40749002,0.07516056,-0.1001345,-0.4760086,-0.11725044,0.34843546,-0.3836349
0.17540398,0.051469482,0.27800027,0.21351953,0.0051981113,-0.80881715,-0.38121334,-0.11234552,-0.16672394,-0.508225,0.41174495,0.053347856
0.27449265,0.07216513,0.20917593,0.2356849,0.33533037,-1.1580143,-0.15970871,0.24169281,-0.007992268,-0.87699556,0.21677999,-0.06143701
0.12352182,0.083873555,0.22553994,-0.14804365,-0.37939486,-0.24277388,-0.38971078,0.06108181,-0.5103465,-0.31049377,0.045727015,0.4827291
0.20214166,0.16868822,0.18177363,0.007935715,0.50325406,0.06032337,0.23084548,0.3857756,-0.2612572,-0.31825435,0.38361126,0.15743658
0.15771988,0.10276635,0.2241154,0.06588318,-0.06271825,-0.6204477,-0.11914,0.17641044,-0.3971706,-0.4150434,0.1812604,-0.09638032
0.23272958,0.15517901,0.2084571,0.061660558,0.33893573,-0.9085814,0.15026519,0.255641,-0.036720157,-0.7819923,0.15276414,-0.25437528
0.21145736,0.10269014,0.20165922,0.23355024,0.15870552,-0.6060114,-0.04120913,0.31352636,-0.25928515,-1.0925254,0.25253075,0.5525032
0.23135397,0.15314987,0.17223331,0.046317752,0.33640411,-0.7028946,0.13843796,0.4358947,-0.17037943,-0.95976734,0.10867937,0.1382499
0.2652313,0.119735606,0.23146804,0.101601265,0.47811642,0.16984527,0.00022864342,0.12356517,0.08523643,-0.3256492,0.28568113,0.52983
0.2779174,0.021233078,0.2172977,0.13337626,0.24500538,-0.6767407,-0.383016,0.21938097,-0.011705041,-0.3976242,0.074992314,0.123383254
0.28483224,0.02704711,0.19021502,0.23829068,0.39979267,-0.61194366,-0.3406023,0.33146608,-0.09768793,-0.32794327,0.23473318,0.11413786
0.2908143,0.04451651,0.21517237,0.068244666,0.25576457,-0.73744804,-0.29065236,0.21350583,0.077237785,-0.33872753,-0.027971834,-0.1006479
0.2819773,0.09107922,0.17474593,0.37822583,0.45736584,-0.7650337,-0.052948236,0.36795685,-0.039616913,-1.077961,0.3565234,0.5082474
0.23397169,0.15989515,0.16362014,0.0824507,0.5172593,0.12822627,0.1805146,0.45551416,-0.18684903,-0.61226046,0.2806766,0.60408854
0.18878731,0.12550841,0.20273237,0.028997272,0.31187525,-0.21731591,0.01094532,0.29801017,-0.3752601,-0.081478834,0.39011037,-0.1434567
0.21699502,0.11744422,0.28184706,0.014640893,0.32159638,-0.28545174,-0.036325842,-0.09114349,0.08149588,-0.0073765516,0.33156526,-0.23938647
0.057220925,0.117055096,0.24297886,-0.067318015,-0.5681871,-0.37838173,-0.14406316,-0.15089883,-0.483104,-0.32585537,0.06609391,0.104326814
0.1697669,0.15255192,0.29249713,0.0021072354,-0.0057266103,0.37158784,0.15077057,-0.12786435,0.115522206,-0.18988693,0.006480448,0.41069058
0.23148443,0.09848626,0.25973496,0.26068622,0.23440257,-1.2053382,-0.05144927,0.015556276,0.059651375,-0.94159865,0.29934102,-0.17222002
0.19113131,0.103280194,0.18742692,0.00039359473,-0.005861929,-0.2678055,-0.11950734,0.4004422,-0.4073492,-0.76554894,0.0015725195,0.6172459
0.1521217,0.14592429,0.2258771,-0.0005410041,-0.13040365,-0.48485827,0.12136766,0.19406036,-0.26619118,-0.27711737,-0.059525862,-0.32848486
0.20792764,0.090733506,0.20303404,0.31096184,0.17667365,-1.4426363,-0.08088809,0.2982663,-0.29374465,-0.9717525,0.3536566,-0.36156476
0.17290543,0.12341888,0.22456244,0.047487732,-0.013633116,-0.9597228,0.0059314966,0.20178562,-0.28399348,-0.6075687,0.08309792,-0.36035874
0.24902873,0.16633359,0.1748946,-0.074887216,0.432589,0.7435841,0.15639916,0.392589,-0.06865424,0.015704274,0.11469512,0.5547209
0.22114053,0.054035716,0.2724815,-0.053272795,-0.028150102,-1.1400043,-0.35717052,-0.030000761,0.010010004,-1.0121875,-0.047219213,0.23050413
0.26418254,0.07625508,0.18057671,0.08818441,0.4696804,-0.54125786,-0.19535747,0.3904635,-0.21701068,0.036159873,0.30389988,-0.3619244
0.097121164,0.10776604,0.2586068,0.26637685,-0.14618973,-0.7175318,-0.010372877,-0.09551619,-0.363972,-0.7258274,0.4056478,-0.06256449
0.11336844,0.119199924,0.21485622,-0.029691357,-0.33512676,-0.61357963,-0.061113358,0.17179841,-0.50210726,-0.9216705,-0.009912305,0.37554356
0.046351552,0.12573841,0.23866904,0.29712346,-0.32272765,-1.1193793,0.22003868,-0.039735638,-0.47468972,-1.0197505,0.23905753,-0.4213243
0.16198045,0.12608247,0.25494176,-0.004227665,-0.1259546,-0.94800436,0.002446264,0.043094993,-0.16597378,-0.9728075,-0.0054466315,0.022900403
0.23355016,0.077721275,0.17279166,0.4032857,0.28245836,-1.2635581,-0.113271415,0.43583652,-0.3045236,-1.0404336,0.40889162,-0.028059602
0.21012636,0.15424342,0.16383202,0.16963571,0.3468371,-1.4688336,0.19166681,0.48664376,-0.26590812,-1.1713237,0.24182154,-0.43445233
