x,y,z,R,P,Y,t1,t2,t3,t4,t5,t6
0.12836352,0.07397158,0.27043164,0.26747105,-0.24679661,-1.2237674,-0.27041426,-0.13408303,-0.2682503,-0.9730606,0.38733748,-0.07830566
0.29729706,0.07258721,0.18542871,0.21436942,0.4075364,-1.444155,-0.15272672,0.3242882,0.031746,-1.0156232,0.15683874,-0.20713644
0.068864465,0.1324587,0.2526627,0.13680013,-0.10418751,0.06409003,0.1788052,-0.07355146,-0.42040402,-0.31256312,0.38321584,0.1619645
0.21773206,0.07467383,0.25578725,0.32961494,0.15952258,-1.4758638,-0.15246001,0.032061547,-0.053634465,-0.91246504,0.37773407,-0.38761052
0.23062132,0.09191846,0.25546855,0.07819084,0.33505246,0.2576827,-0.14244516,0.036741808,-0.04294303,-0.07691264,0.34990248,0.49018583
0.17400919,0.08562191,0.25767094,0.023780502,-0.07994857,0.027151605,-0.22832501,0.015267611,-0.2170508,-0.30941796,0.1355986,0.5597842
0.18513295,0.13395306,0.28802857,0.010681649,0.25002965,0.1341904,0.05326155,-0.12204633,0.03596127,-0.0713464,0.33604655,0.15258363
0.22615112,0.06607431,0.21947026,0.023245985,0.06282364,-0.3826899,-0.27532035,0.23457119,-0.20653641,-0.13490176,0.039094925,0.028336465
0.24952756,0.16477656,0.17240813,-0.05601327,0.34725758,0.20498422,0.15064734,0.40761393,-0.05370587,-0.39287138,-0.0025373213,0.4372076
0.1753872,0.12673533,0.25323808,-0.008999998,0.017043168,0.244777,0.004375756,0.057440177,-0.15675879,0.076690555,0.11674171,0.16407773
0.23993541,0.063255936,0.25380802,0.21201259,0.23223808,-1.187887,-0.22891517,0.049013108,-0.014178425,-0.55520654,0.2830355,-0.3763216
0.09939096,0.12831849,0.2539602,0.21290338,-0.024925953,-0.672084,0.14711174,-0.02965726,-0.34897017,-0.58566934,0.3805242,-0.27576357
0.25469264,0.124959305,0.21436296,-0.014437504,0.23254466,-0.58843434,-0.0055598915,0.23080388,0.013845503,-0.9002252,-0.019567464,0.3137811
0.2866513,0.09777039,0.15725303,0.15577301,0.52428555,-0.46328694,-0.076232016,0.45942587,-0.100930065,-0.49623019,0.20257553,0.16887441
0.11427837,0.115645826,0.2649867,-0.042844202,-0.381437,-0.16151112,-0.09268126,-0.08537872,-0.25669762,-0.12272024,-0.04192454,0.06305304
0.21815223,0.12331925,0.23458081,0.07684536,0.14409424,-0.74045455,0.013073146,0.1540938,-0.0665378,-0.94920063,0.09590293,0.20464382
0.2382996,0.14377409,0.22508606,0.037467506,0.40832913,-0.5526266,0.09361151,0.17254022,-0.007394582,-0.29355758,0.24913174,-0.33886474
0.2603084,0.1276083,0.20550361,0.23316851,0.48495996,-1.1726545,0.064609826,0.23921716,0.0071152747,-0.7975614,0.3332327,-0.3515472
0.20301154,0.14410497,0.24760893,0.05319626,0.28856647,-0.17253152,0.11373925,0.08140129,-0.052667588,-0.3211329,0.2658924,0.043808162
0.2334129,0.08760457,0.2043496,0.21084753,0.30092704,-0.92694587,-0.1206712,0.29053923,-0.22082709,-0.57255995,0.30510613,-0.19579661
0.2313962,0.10996147,0.188999,0.013550887,0.37985176,0.28362525,-0.07186955,0.36793232,-0.2810552,0.048698068,0.29328474,0.30877277
0.30400425,0.029375225,0.21309704,0.32660082,0.5390159,-0.70276076,-0.30173874,0.18183634,0.08203837,-0.31374753,0.3656714,0.019197404
0.27669415,0.123054445,0.19332543,0.30748978,0.5485998,-0.4068467,0.05680281,0.26912326,0.044724196,-0.89550775,0.37714437,0.5670512
0.14781864,0.08235071,0.24539435,0.0011289733,-0.18456104,-0.17117769,-0.29635698,0.03042221,-0.36748004,-0.3296209,0.16966489,0.44545594
0.1540713,0.12140768,0.21521635,0.17292432,0.06552093,-0.372838,0.045208663,0.22906041,-0.3990022,-0.6637893,0.28712395,0.23639801
0.116490364,0.13687168,0.22155347,0.122567505,-0.09420595,-0.8847353,0.1449177,0.17874014,-0.42860657,-0.66203225,0.17472026,-0.38681203
0.29706705,0.13920943,0.16879287,0.021765245,0.55167854,-0.7691622,0.056007653,0.36086965,0.08831057,-0.4434281,0.111749224,-0.36448878
0.092155464,0.1276317,0.24456449,0.012039164,-0.3746276,0.15798205,0.0251562,-0.0027551055,-0.38754034,-0.12816858,0.015616767,0.25831857
0.20394786,0.06767009,0.27736914,0.1355755,0.08831796,-0.17844263,-0.2643726,-0.06772149,-0.047430515,-0.4303031,0.25917682,0.51600873
0.09581904,0.11705892,0.23671731,-0.04154928,-0.42832297,-0.7961772,-0.091994375,0.011451617,-0.44230092,-0.6917536,0.0008314699,-0.0035071373
0.11452713,0.1193727,0.253093,0.26910827,-0.044673156,-0.6208148,0.08797613,-0.013027102,-0.32216665,-0.8007986,0.3715654,0.041298777
0.088756494,0.128261,0.27283227,0.051013965,-0.3199617,-0.27899826,0.05291584,-0.13934681,-0.25685805,-0.4060213,0.080348946,0.059547156
0.23084708,0.05110345,0.18034032,0.27516255,0.28843835,-1.0440617,-0.2885625,0.41321027,-0.38104627,-0.48924387,0.36729977,-0.22323012
0.18495695,0.08364764,0.20356561,0.18369019,-0.0009986631,-0.9348341,-0.17135029,0.30121383,-0.40039253,-0.95540714,0.22245908,0.18280771
0.14797893,0.09734836,0.25738543,0.061362747,-0.15141018,-0.26676023,-0.16282246,-0.008619502,-0.2733301,-0.53868324,0.1650176,0.41816863
0.20741364,0.10426482,0.25427324,-0.026533652,-0.019468376,-0.65050733,-0.11272669,0.06118095,-0.056916356,-0.73771393,-0.035939056,0.20014009
0.13654196,0.15657718,0.25220728,0.011579767,-0.07211396,0.8347377,0.20435229,0.05821292,-0.18111524,0.066259265,0.05005081,0.56391203
0.2894496,0.07250615,0.20704639,0.09545981,0.39299545,-0.26815498,-0.18445306,0.24201763,0.04036036,-0.1342268,0.12223519,0.07188985
0.17836258,0.09178545,0.27181703,0.004024741,-0.10369757,-0.83160573,-0.1905478,-0.044548206,-0.108781844,-0.42349404,0.057302453,-0.21957846
0.16318086,0.08540886,0.23590876,0.033464327,-0.0207307,-0.72920734,-0.24920854,0.10080126,-0.38387936,-0.1392721,0.27375284,-0.34641892
0.17258915,0.13566852,0.18671456,0.16848652,0.25967142,-0.16504571,0.12463224,0.38645327,-0.42141336,-0.62383866,0.33622822,0.35275337
0.18549637,0.108183295,0.19489515,0.017949166,0.028332185,-0.030725267,-0.09005457,0.35796028,-0.40377688,-0.20002192,0.077184595,0.25925425
0.16394402,0.118089944,0.2447855,0.045510318,-0.10056863,-0.94740015,-0.026292205,0.091665566,-0.22711273,-0.92690235,0.05991412,0.0002565384
0.22433694,0.12255793,0.26748276,0.008585336,0.11676708,-0.31501245,-0.010637224,-0.007105127,0.10708973,-0.4077664,0.0183767,0.10425779
0.33757117,0.012176622,0.14829469,0.4851679,0.5841508,-0.74358237,-0.3027245,0.40647882,0.09720233,-0.78652745,0.29663652,0.55013967
0.16574691,0.074828684,0.2551002,-0.11273557,-0.25819746,-0.47797847,-0.34460744,0.008437961,-0.24282016,-0.3343873,-0.04911623,0.21757033
0.1272945,0.095932685,0.27155247,0.07679181,-0.21564566,-0.9844996,-0.18927826,-0.11733144,-0.26091716,-0.5704102,0.21245748,-0.25479642
0.3196925,0.1315518,0.12910646,0.34437516,0.7844381,-1.0860708,0.07612115,0.45258147,0.1142976,-0.9226666,0.37498236,-0.0048078
0.1879583,0.11576961,0.19189979,0.14553232,0.10957639,-0.9992423,-0.0026370585,0.37126923,-0.37506598,-0.9029517,0.18426582,-0.08593345
0.3413306,0.020831153,0.14013922,0.20547582,0.53625995,-0.7840625,-0.3125565,0.45574313,0.10645506,-0.86217064,0.012893252,0.45013264
0.103445835,0.13118102,0.2396303,0.014794186,-0.3487703,-0.19138221,0.05185333,0.051982403,-0.37032056,-0.12402737,-0.030950416,-0.121198386
0.29301968,0.068920575,0.21121955,0.24265331,0.481625,-1.0884261,-0.16816428,0.2043148,0.06835607,-0.4998557,0.27990112,-0.34169504
0.10213511,0.10359446,0.24901207,-0.09590939,-0.34735435,-0.40628082,-0.24947228,-0.08134867,-0.43257865,0.0209136,0.15414026,-0.16005105
0.28255248,0.18215244,0.1454682,-0.12199565,0.5687722,0.6164545,0.19063988,0.44777584,0.07142958,-0.022613287,0.06110403,0.4130971
0.24621508,0.044238694,0.18210027,0.17741446,0.30640113,-0.34551263,-0.32930103,0.40771443,-0.31692103,-0.23882484,0.26379752,0.2529464
0.2661434,0.03466858,0.20882452,0.28918135,0.2713709,-1.0220602,-0.30897567,0.2568962,-0.09505281,-0.77046394,0.26172888,0.11211458
0.16894943,0.13803332,0.21644004,-0.012084526,-0.07518896,0.103621475,0.06661451,0.2471334,-0.27991056,-0.38984072,-0.04480916,0.42758152
0.13611981,0.09520932,0.2733612,0.062143344,-0.18526933,-0.402831,-0.19143344,-0.110123746,-0.23248391,-0.50907576,0.19612667,0.27555695
0.16485882,0.109950654,0.25973868,0.09129559,0.014420915,-0.54400873,-0.06024456,0.007144809,-0.19908202,-0.4063239,0.23005456,-0.08548427
0.23178075,0.06381662,0.25600404,0.2597294,0.18435436,-0.5662858,-0.21714103,0.0374642,-0.024616897,-0.7524191,0.30779892,0.4287813
0.1270233,0.085175894,0.24854003,0.007845248,-0.3394083,-0.70952034,-0.29822987,-0.023196235,-0.3783266,-0.933918,0.13084686,0.50001454
0.28475595,0.109013304,0.2012251,0.11993587,0.41437417,-0.85721195,-0.03669992,0.25544685,0.07343468,-0.8048699,0.13174015,0.02549687
0.2569522,0.09887497,0.21706688,0.085725784,0.36528265,0.21060495,-0.09362802,0.21737471,-0.054739237,-0.21903694,0.21437356,0.5429566
0.14189768,0.14187926,0.28082475,0.122367956,0.022635346,-0.49871883,0.15962568,-0.09075545,-0.06790632,-0.66056114,0.20363015,-0.006299913
0.20661879,0.13235034,0.2053566,0.1024209,0.23104192,-0.27711058,0.06749496,0.29653412,-0.22491142,-0.64695394,0.19153133,0.31840357
0.20379493,0.07810747,0.2022327,0.27325574,0.07673523,-0.81008524,-0.15850832,0.30861074,-0.3297468,-1.0711224,0.29310307,0.42736396
0.22311594,0.14473012,0.19285834,0.010138986,0.28067315,0.053128652,0.094073415,0.3498868,-0.17596394,-0.3295107,0.11061277,0.29313615
0.22641286,0.095319286,0.19905406,0.25335985,0.3167313,-1.0132953,-0.07390341,0.31348544,-0.25190973,-0.6696986,0.35289773,-0.2221718
0.22492285,0.15162434,0.17877245,-0.067042895,0.20867507,-0.72432345,0.10081765,0.4186905,-0.1824097,-1.1158559,-0.04939867,0.27843055
0.20913744,0.057980202,0.22030401,0.017459545,0.033403184,-0.027852207,-0.34374893,0.22424567,-0.29932904,-0.0460788,0.112534784,0.36207268
0.31131226,0.025673022,0.18061577,0.19038306,0.42758027,-0.1420402,-0.32388532,0.34175175,0.033189237,-0.33594245,0.095015325,0.565238
0.25064206,0.066492006,0.2404094,0.03758686,0.13382167,-0.4570425,-0.24435675,0.12407181,-0.0031018555,-0.21168017,0.018356152,0.0017471611
0.22569488,0.09365603,0.22410771,0.0947421,0.109828,-1.5391583,-0.12148319,0.20811594,-0.13859603,-1.0020728,0.095153905,-0.40759793
0.22281949,0.040177487,0.27420208,0.22825855,0.050993863,-0.8351147,-0.3440607,-0.04728423,0.0140275955,-0.89589787,0.2531524,0.4073902
0.3242163,0.036508083,0.16044866,0.24706702,0.65731114,-0.7841578,-0.27854985,0.39375073,0.014117092,-0.063874006,0.28820062,-0.35314837
0.13642257,0.07617279,0.25987226,0.23103665,-0.20055942,-0.5745794,-0.2574653,-0.06429022,-0.30999857,-0.87710506,0.3556492,0.485433
0.15150483,0.09544256,0.26998824,0.091768764,-0.11981154,-0.8397885,-0.16089575,-0.06655305,-0.20402715,-0.58468646,0.19871172,-0.11452505
0.25249442,0.10757186,0.2575766,0.034390505,0.48000768,-0.13623728,-0.072562695,0.008586809,0.0866169,0.0081323385,0.38594103,-0.06354287
0.24769682,0.10590173,0.19957775,0.086879045,0.2516565,-0.8811868,-0.06203574,0.3133221,-0.12025258,-0.8196922,0.09376728,0.018200278
0.15923063,0.076908164,0.26699626,-0.017882338,-0.20412347,-1.0633779,-0.31509244,-0.05609048,-0.21869698,-0.5521595,0.088140585,-0.20065787
0.11892731,0.14178382,0.21625999,-0.0052264603,-0.22733693,-1.3311825,0.113904804,0.21151847,-0.42218757,-1.1245679,-0.03401212,-0.31667608
0.15452558,0.13129432,0.2459831,0.06454273,-0.026290528,-0.21886057,0.062307417,0.084274724,-0.23417306,-0.4847991,0.13497937,0.19807282
0.18883125,0.13861611,0.19170746,-0.0007456374,0.09931926,0.098931804,0.07032654,0.37704194,-0.32395208,-0.13450229,0.04645639,0.16323605
0.19537453,0.1413416,0.21119425,0.10128593,0.34256667,-0.5722066,0.12049356,0.2566121,-0.24749549,-0.40645695,0.34826818,-0.2680739
0.23352943,0.08729229,0.17282797,0.23866473,0.289314,-1.1159378,-0.11338718,0.45174414,-0.31581348,-0.81970274,0.26699242,-0.13447061
0.25159657,0.10343781,0.2204863,0.042973056,0.25990063,0.13401476,-0.083821565,0.21019813,-0.038948834,-0.21431708,0.09349538,0.43948504
0.12021006,0.11834538,0.2396079,-0.044358004,-0.3318156,-1.170733,-0.07109895,0.054569364,-0.37014446,-0.7880765,-0.026345883,-0.30115217
0.2242064,0.08885922,0.2429339,0.028572688,0.14939596,0.18459396,-0.16857903,0.114004225,-0.10160634,-0.020666838,0.13968831,0.3759962
0.21959539,0.086826056,0.21800609,0.0019698916,0.027511854,-0.25930473,-0.18429421,0.24263409,-0.19896871,-0.18872607,-0.016552255,0.11367485
0.22830679,0.05898602,0.24263746,-0.008794095,0.012701708,-1.1232619,-0.31179383,0.119299054,-0.09592205,-0.7200593,-0.01860148,-0.09160805
0.24731408,0.1398549,0.2349262,-0.030014534,0.2108167,-0.15386568,0.05300036,0.13132644,0.10330573,-0.68097806,-0.028943326,0.46879146
0.18773872,0.12271585,0.21609916,0.0829149,0.2428276,0.093843915,0.0139632225,0.23509273,-0.3114235,-0.26191932,0.32932073,0.34865674
0.19653377,0.14660963,0.27285686,0.21010022,0.22986156,-1.2705059,0.17485216,-0.044666976,0.10339442,-1.06464,0.27751142,-0.3491862
0.18853985,0.06615092,0.21136706,0.033354253,0.10775988,-0.2917166,-0.34305397,0.24398124,-0.4485717,0.015877724,0.31730413,0.03777179
0.21415824,0.07454057,0.2107813,0.16698061,0.17190804,-0.6439906,-0.20971264,0.26758155,-0.30161425,-0.48853248,0.26861027,0.06652197
0.12161888,0.12327895,0.27270555,0.18211184,-0.055533882,-0.1265073,0.07207295,-0.09186648,-0.20929879,-0.6627072,0.29072642,0.43219396
0.1664419,0.07869667,0.24935754,-0.07274258,-0.2188833,-0.6561949,-0.308417,0.042174056,-0.27113926,-0.8434166,-0.0022545867,0.50382876
0.25918743,0.07286291,0.20369305,0.10235342,0.31866774,-0.5357559,-0.20187803,0.29067582,-0.13395554,-0.18223888,0.17884654,-0.13260755
0.26815653,0.066845626,0.223524,0.019640474,0.18257116,-0.7845017,-0.23262729,0.19456795,0.015549958,-0.69020176,-0.03623102,0.13769618
0.15113455,0.07454349,0.25132862,0.113913596,-0.20037307,-1.2386224,-0.292696,0.007119581,-0.31934398,-0.8358495,0.2230215,-0.14738277
0.2615527,0.08248157,0.19326738,0.045066044,0.23735826,-0.28225872,-0.16843912,0.34261507,-0.11854854,-0.21193647,0.01782301,0.103913635
0.20666106,0.08450399,0.2294013,0.12333877,0.12419153,-0.061836615,-0.17467293,0.17542726,-0.2367786,-0.45192367,0.22797021,0.5693799
0.29189628,0.050868683,0.20822893,0.12395138,0.3810776,0.13152534,-0.2609374,0.23929626,0.031705618,-0.115973234,0.12938413,0.53443515
0.1628576,0.09073748,0.2832624,0.022003397,-0.10730031,-0.46504524,-0.2095263,-0.12014258,-0.114617765,-0.31557834,0.14117956,0.053742737
0.08449137,0.13565235,0.24348988,0.024301281,-0.38505992,-0.67996234,0.101490855,0.008080155,-0.38169298,-0.92191064,-0.01964626,0.13868186
0.27073053,0.1258885,0.21892741,0.21945034,0.4575346,-1.0449773,0.052358925,0.16799164,0.11546585,-0.91219145,0.27947098,-0.10171729
0.227795,0.061721597,0.27390388,0.0774343,0.110859856,-0.6789026,-0.28195858,-0.038654305,0.03064254,-0.3075276,0.14274895,-0.08529109
0.18375465,0.10729161,0.21475549,0.1271375,0.08938169,-0.99465674,-0.05776453,0.2469804,-0.33584154,-0.582168,0.22174212,-0.3544514
0.26791164,0.039131958,0.2541837,0.11031594,0.1841253,-1.2779732,-0.324866,0.04748994,0.11573616,-0.7592177,0.06415675,-0.18007411
0.104170114,0.10257554,0.2593449,-0.0110124545,-0.2497335,-0.15682115,-0.21789408,-0.121861696,-0.3915935,-0.16165513,0.27049792,0.21300253
0.23465881,0.10036182,0.17183462,0.03837138,0.28487572,-0.5743085,-0.10765009,0.4650095,-0.31330055,-0.047362328,0.13575059,-0.4133009
0.12157446,0.09831136,0.24440876,-0.007193854,-0.32486415,-0.55575806,-0.21087436,0.0025156736,-0.39481696,-0.69188535,0.094409145,0.33628926
0.27288055,0.095882736,0.22789752,-0.0003306424,0.24165876,-1.0632629,-0.11746065,0.15954107,0.09769097,-1.0255882,-0.033179786,0.07608038
0.17343958,0.15922612,0.23019111,-0.008642256,0.021049755,-0.4197929,0.17950568,0.18127686,-0.15324688,-0.68762255,-0.0074734837,0.088166505
0.20334253,0.13727,0.18470728,-0.005284976,0.12618287,-0.55351716,0.0579153,0.4098193,-0.28935534,-0.33912575,0.0061634034,-0.27251697
0.28561673,0.08025706,0.16464172,0.13549113,0.4822583,-0.6574223,-0.15103823,0.43993855,-0.12117088,-0.26702,0.18496352,-0.1980146
0.17270201,0.1493847,0.17894727,-0.009316947,0.024802508,-0.38472998,0.1297555,0.4468286,-0.37998068,-0.14582342,-0.041487798,-0.36897907
0.10161503,0.12924528,0.23113772,0.076228894,-0.2062859,-0.43392292,0.071885735,0.09099008,-0.44797906,-0.3911237,0.15707818,-0.13326478
0.073051736,0.12853883,0.24672545,0.20192192,-0.29646853,-0.9758608,0.15044114,-0.027594611,-0.40006587,-0.97163904,0.1775479,-0.21649224
0.20678924,0.14386475,0.25814638,0.03570685,0.27516112,-0.091846,0.10488844,0.030901805,0.011310577,-0.2705143,0.23650753,0.08006784
0.27899125,0.1355132,0.1854572,0.007851785,0.4013372,-1.1098149,0.041151255,0.32551318,0.04927215,-0.731018,0.034896083,-0.41392198
0.18020548,0.10062632,0.2592646,-0.015368104,-0.11432557,-0.5252929,-0.14327067,0.022923768,-0.1413213,-0.36790574,0.0032731518,-0.013306767
0.13973257,0.14955606,0.20647164,0.020829618,0.052921854,0.19659752,0.1714364,0.28571692,-0.41907772,-0.16175473,0.18432763,0.18549117
0.14747715,0.15420364,0.2843067,-0.019463576,-0.12093943,-0.94733155,0.16509733,-0.095433936,0.015473992,-0.82138413,-0.053140458,-0.28830865
0.08733282,0.11512333,0.24216756,0.19150847,-0.3216908,-1.1251366,0.0110071,-0.014284968,-0.42951015,-1.0045255,0.21141058,-0.20266742
0.29075167,0.028793983,0.19812387,0.07446327,0.246935,-0.6313359,-0.34867653,0.29770276,0.0048504174,-0.33389425,-0.047969203,0.058091193
0.25203678,0.072353676,0.21196574,0.23697408,0.2242043,-1.602925,-0.16778512,0.24985078,-0.09677029,-1.0430138,0.22001076,-0.35062677
0.22350232,0.1064107,0.22973953,-0.025732575,0.04133453,-0.59080404,-0.095678,0.18206641,-0.09392911,-0.5389758,-0.05758157,0.04201567
0.12454536,0.1515047,0.26658392,0.03318195,-0.09132187,0.45516872,0.19523242,-0.025494382,-0.16118333,-0.16120052,0.09183217,0.41824564
0.14652833,0.09363079,0.23204371,-0.05722895,-0.25822303,-0.7646054,-0.23401035,0.10885137,-0.3931955,-0.26404154,0.020767495,-0.25989598
0.25281444,0.12530977,0.22009729,0.025228674,0.24594367,-0.8604956,0.006155491,0.20330882,0.029108405,-1.0929695,0.029244274,0.2324709
0.08205651,0.11253879,0.24939923,0.29685506,-0.24903227,-0.5756898,0.050902188,-0.06248703,-0.40476176,-0.97158647,0.33383554,0.2428365
0.17616494,0.1307722,0.28486198,0.11673034,0.17307544,0.020279141,0.07436347,-0.10447948,0.009862483,-0.46284944,0.2888908,0.4127914
0.15822476,0.15802976,0.18363632,-0.019074747,0.27900967,0.060107414,0.20223656,0.40467393,-0.45154092,-0.11686015,0.32613978,-0.028843284
0.30264932,0.059218746,0.19852403,0.042632293,0.3182458,-0.90667176,-0.2329512,0.27095574,0.09372839,-0.6275908,-0.05596837,-0.045323372
0.24449658,0.13031188,0.24463956,0.070650116,0.25675902,-0.32715386,0.040031523,0.08662826,0.1059607,-0.9039014,0.09992579,0.5534531
0.32695773,0.06753351,0.14728767,0.077832535,0.5020562,-0.958014,-0.18587367,0.44825274,0.07607129,-0.90585935,-0.02789456,0.14781043
0.13558304,0.13814971,0.21735631,0.013227072,-0.18103887,0.3221765,0.088739574,0.22119814,-0.37779918,-0.11985862,-0.025070474,0.35233036
0.20932268,0.15819025,0.17997631,-0.017912118,0.25450408,0.30965507,0.15480992,0.41890556,-0.23389333,-0.304065,0.072519444,0.45863995
0.17841095,0.14553042,0.26937255,-0.00571988,0.045995653,0.3502815,0.10802919,-0.014798313,-0.010599166,0.010086536,0.071745165,0.23204342
0.14136423,0.14755382,0.25652033,0.1423375,-0.0070528914,-0.6378373,0.19921795,0.034353912,-0.15893808,-1.0005075,0.16427001,0.15432945
0.3034936,0.037744153,0.20051011,0.14209506,0.384267,-0.6665331,-0.29497203,0.26226813,0.0656248,-0.20464289,0.081959106,-0.13645577
0.23552084,0.11360692,0.23739491,0.033025865,0.19916974,-0.4781538,-0.044196516,0.13582546,-0.016722172,-0.2825386,0.08472931,-0.14670596
0.1306057,0.10158573,0.2690946,-0.10449323,-0.3608038,-0.31276786,-0.2116006,-0.09891465,-0.227459,-0.41694355,-0.05253811,0.33836892
0.15299916,0.07317548,0.23573372,0.16456425,-0.18382259,-0.9819236,-0.2781908,0.08789644,-0.3850027,-0.9138113,0.26196223,0.16402832
0.28763682,0.033870548,0.18542114,0.19646803,0.55478984,-0.22234888,-0.33452407,0.34123728,-0.13422689,0.04393208,0.3782187,0.122568816
0.1622067,0.14268425,0.24555734,0.23043637,0.1935478,-0.5498027,0.19206497,0.08317761,-0.16910204,-0.845754,0.3501173,0.11503044
0.1473662,0.08582345,0.2536102,-0.068532825,-0.26573768,-0.9822926,-0.2920374,-0.006942153,-0.30351695,-0.32591295,0.038525626,-0.3571039
0.27643868,0.14216192,0.19253336,-0.036412105,0.527751,-0.11810327,0.059420347,0.28622037,0.038894594,0.0073604584,0.20377553,-0.19497378
0.29309222,0.024898415,0.19717503,0.1766382,0.29638904,-0.92485857,-0.34124976,0.29510632,0.0043450594,-0.9994102,0.07213419,0.4514229
0.26215214,0.11267614,0.23835969,0.2560909,0.4537307,-0.28030142,0.0073823333,0.08644205,0.114467114,-0.7371558,0.35064992,0.5332197
0.1960618,0.10870607,0.19266924,-0.0109035075,-0.00042536345,-0.55840087,-0.09107411,0.37351733,-0.3530358,-0.45897895,-0.024423681,-0.00845629
0.2669291,0.09404011,0.19498035,0.2565135,0.41500103,-0.6510054,-0.07001805,0.30367777,-0.07072511,-0.78686905,0.29132852,0.28477833
0.26524204,0.08446607,0.1751459,0.06972589,0.45605406,0.21035054,-0.16131443,0.41641027,-0.20879276,0.035900712,0.25344005,0.35098568
0.24212171,0.06434477,0.19996195,0.1437921,0.2470184,-0.6198901,-0.24230528,0.32094473,-0.23488258,-0.38661873,0.20354459,0.03024444
0.25135502,0.16443801,0.18328138,0.06929301,0.60815495,-0.23434182,0.18589392,0.32963946,-0.041502744,-0.4998392,0.34356537,0.1260263
0.11058361,0.10121097,0.2488358,0.071196534,-0.15431716,-0.5876003,-0.1788724,-0.054520324,-0.43932438,-0.2727654,0.3664161,-0.16554874
0.2291186,0.11823395,0.20820948,0.054448493,0.22101346,-0.39667413,-0.017721534,0.28039137,-0.15415996,-0.47481745,0.10783657,0.10503623
0.19957948,0.08215465,0.21342525,0.047467466,0.01802304,-0.2305362,-0.21419221,0.2603367,-0.32273275,-0.44178718,0.0996303,0.4245424
0.13095377,0.12332406,0.23759943,0.074430734,-0.1518327,-0.38669845,0.01828754,0.096035644,-0.35354233,-0.59945226,0.12569338,0.17967042
0.27714306,0.11923478,0.19170007,0.2510426,0.5934481,-0.7879343,0.028388321,0.28117698,0.00646317,-0.6323459,0.3845616,-0.072752595
0.17940709,0.12059193,0.27869236,0.1632982,0.17086296,-0.8730659,0.031440914,-0.077898934,-0.031042963,-0.5503947,0.3219066,-0.34928712
0.1077544,0.1420108,0.22049814,0.055816945,-0.11951127,0.4215634,0.15923956,0.17696425,-0.4535301,-0.23571181,0.15383229,0.48973748
0.15884757,0.14288396,0.2917382,0.00694169,-0.07783217,-0.5283598,0.10482144,-0.130544,0.053139657,-1.045472,-0.0014479347,0.41206887
0.26308054,0.15527196,0.17870316,0.12920523,0.61539084,-0.5092769,0.15361592,0.34076232,-0.017685264,-0.62131053,0.33668083,0.032511026
0.2068604,0.1040807,0.22464487,0.269826,0.14180249,-1.1085273,-0.023222417,0.19438267,-0.1768991,-1.1057801,0.2957811,0.042084455
0.26229352,0.0414671,0.25023502,0.29865375,0.2285959,-1.3015198,-0.27796805,0.055771053,0.07730791,-0.89692354,0.27660534,-0.07750952
0.18790697,0.079356536,0.24852075,0.04084751,0.1292185,-0.18483411,-0.26014382,0.056320846,-0.26727766,-0.017639875,0.3463616,0.09495124
0.13691978,0.12392048,0.26225984,0.012829801,-0.09472428,0.30148402,-0.0046870112,-0.024598107,-0.24016862,-0.07791698,0.170603,0.3817272
0.19020678,0.061550684,0.21795292,0.249063,-0.052076455,-0.9218954,-0.26637968,0.2199511,-0.33878696,-1.0956506,0.28637093,0.41842154
0.21195312,0.07356974,0.19846019,0.20795791,0.10981719,-1.1574987,-0.19890718,0.33333617,-0.33469146,-0.8770198,0.23566604,-0.07022366
0.19437781,0.10726892,0.2897699,0.075464934,0.08384172,-0.32432896,-0.072277784,-0.12053213,0.054700643,-0.42031002,0.16962966,0.16914698
0.13907064,0.15116692,0.28100598,0.08424376,-0.02513321,-0.7828612,0.20025167,-0.08461647,-0.04194507,-0.7405982,0.11502204,-0.24848391
0.18925269,0.11960631,0.18228851,0.27291578,0.19099797,-1.0023723,0.06075588,0.4105478,-0.3773983,-1.095179,0.31529266,0.063046366
0.3257339,0.04942489,0.14133899,0.41829365,0.65756875,-0.8503367,-0.19980982,0.45546913,0.0139063,-0.6331926,0.3336634,0.17647633
0.32363138,0.061211385,0.157579,0.12590559,0.56640446,0.0006930212,-0.20477092,0.4103474,0.050893813,0.04574299,0.1175916,0.19512525
0.12281856,0.119666725,0.26531184,0.13851276,-0.098179646,0.032728154,0.0229263,-0.059701666,-0.25749916,-0.5688734,0.25354573,0.55026793
0.19634107,0.15682669,0.21644443,-0.02874609,0.0807396,-0.41439068,0.14665812,0.2467817,-0.1352033,-0.5420827,-0.032093853,-0.021051347
0.23127916,0.10888425,0.19642137,0.16739543,0.2908188,-0.72826546,-0.03020221,0.33174872,-0.20791271,-0.7186198,0.23124626,0.05465907
0.19862227,0.114878505,0.2507931,0.31648362,0.19269015,-1.1057864,0.046827912,0.05675952,-0.06871921,-1.0311365,0.37484586,-0.092580676
0.19593474,0.13646378,0.18577763,0.04127925,0.2613273,0.049111266,0.07369301,0.398547,-0.34984952,-0.27612418,0.2173129,0.25842008
0.19472662,0.1290482,0.2669653,0.1405243,0.19673964,-0.9066361,0.066244066,-0.011388451,-0.00955081,-0.62880963,0.25786877,-0.3317748
0.21175958,0.063440055,0.20285061,0.12601356,0.15986241,-0.913207,-0.28651157,0.3083917,-0.36971205,-0.29073608,0.2612261,-0.32815295
0.0849966,0.1342454,0.25502348,0.18801783,-0.22649808,-1.0012785,0.18230453,-0.033817694,-0.32650948,-0.9453271,0.17156777,-0.2848662
0.26017094,0.06406782,0.22499877,0.14134097,0.2279813,-0.5484944,-0.22325078,0.18897179,-0.03170687,-0.71421546,0.12825647,0.41183445
0.15905567,0.110262014,0.23406628,0.1025119,-0.045442168,-1.036309,-0.054490715,0.13380277,-0.32334194,-0.6145561,0.18232992,-0.3795439
0.24469383,0.1231551,0.18799865,0.1965691,0.35037503,-0.83306843,0.041674554,0.35340926,-0.1281893,-1.0208335,0.23388109,0.20380238
0.1934861,0.10697272,0.1947437,-0.002520576,-0.01831788,-0.38195273,-0.09829858,0.36212134,-0.35668397,-0.029698849,-0.023924753,-0.25393414
0.14525793,0.100612186,0.25581855,-0.014665024,-0.20938475,-0.23655376,-0.17235541,-0.0037154257,-0.27856785,-0.28515494,0.07656329,0.21945176
0.14288326,0.14585954,0.2640491,-0.0048676273,0.031914115,0.5388729,0.1341722,-0.0102084875,-0.1696749,0.0026260614,0.21216244,0.40204695
0.20838009,0.080190815,0.25973383,0.03941467,-0.003872539,-0.44630316,-0.21554314,0.031299666,-0.07607916,-0.6725757,0.06315666,0.4408584
0.1923641,0.112367935,0.26067832,0.1337168,0.13498823,-0.14790493,-0.025476456,0.018648833,-0.09057355,-0.553614,0.24717128,0.43555614
0.23071882,0.09290655,0.2571503,0.09899098,0.117607586,-1.3047746,-0.12117387,0.0435542,0.027961731,-0.96714026,0.101287045,-0.20763946
0.15016466,0.08524688,0.22242957,0.13753058,-0.121941395,-1.0283909,-0.21491481,0.15919617,-0.452947,-0.67450714,0.25725076,-0.1709244
0.19342825,0.0776203,0.22931585,0.09980511,0.09100522,-0.50381696,-0.23555672,0.16544804,-0.3122391,-0.28677142,0.26937726,0.01747629
0.15649809,0.13138182,0.2668206,-0.038518265,-0.1553043,-0.97074264,0.02126643,-0.018034875,-0.11179954,-1.0316312,-0.04817633,0.04530987
0.24301879,0.06343422,0.26860875,0.17359735,0.31114724,-0.32205132,-0.24248976,-0.028295219,0.048363954,-0.26460582,0.33551195,0.21322861
0.22826172,0.11780512,0.24221322,0.15689214,0.29732838,-0.9570026,0.008997798,0.10315141,-0.021619022,-0.61826134,0.26538575,-0.3178547
0.15314229,0.07494912,0.25790423,0.018673418,-0.121498376,-0.32318443,-0.33995435,-0.032522142,-0.31612203,-0.23910743,0.24692112,0.24460533
0.26457006,0.07026089,0.240894,0.025264196,0.17686954,-1.5730991,-0.21996877,0.11228788,0.073124796,-1.092687,-0.015908092,-0.25951597
0.24565187,0.09551437,0.2143856,0.15006602,0.32314235,-0.4191552,-0.09484011,0.23739251,-0.11446494,-0.48236674,0.24175894,0.18953773
0.27571374,0.07556064,0.17736192,0.24279024,0.51262826,-0.75785655,-0.15431708,0.38246453,-0.14819372,-0.40580952,0.3399553,-0.11756012
0.17087439,0.16230561,0.23412368,-0.04826967,0.1687736,0.71474385,0.19406053,0.15489191,-0.17926201,0.07201862,0.1997757,0.44475642
0.2685091,0.08388832,0.21208462,0.114128634,0.32891992,-0.12984303,-0.14408034,0.23822069,-0.026693583,-0.43337572,0.14404112,0.47305128
0.20332089,0.050574604,0.26867682,0.14408053,-0.023081312,-1.3487524,-0.3448229,-0.023681909,-0.088451564,-0.8052114,0.19951892,-0.20845279
0.2585729,0.11276874,0.19579963,0.08822312,0.35772434,-0.06693406,-0.0315243,0.3150698,-0.081706166,-0.5116663,0.14645723,0.50070083
0.14139438,0.14035091,0.29032886,0.009782996,-0.018564798,0.5899415,0.10406011,-0.14059201,-0.04242584,-0.047873735,0.163721,0.5329491
0.17765042,0.12744497,0.19766644,0.07147988,0.17871149,-0.28481603,0.03853923,0.33589646,-0.39813203,-0.31614292,0.25053072,-0.0032337308
0.26409006,0.056817725,0.17014666,0.1634066,0.37441355,-0.4084932,-0.25665793,0.45210862,-0.24861215,-0.2637856,0.20709068,0.14856026
0.3299628,0.030779839,0.16706333,0.15738149,0.4815358,0.16442837,-0.29546094,0.36578208,0.11104116,0.07053316,0.027918674,0.42759344
0.16455236,0.13372867,0.2928452,0.035552166,-0.0118118655,-0.7384405,0.062473536,-0.13796368,0.03968832,-0.39164895,0.09112487,-0.4111832
0.2539659,0.027521433,0.22028735,0.35475665,0.21515971,-1.1824441,-0.33508813,0.20262927,-0.105427206,-0.843307,0.34171012,0.047271192
0.2190753,0.0658817,0.22707945,0.0792279,0.01921509,-1.4402672,-0.26453257,0.19523925,-0.19376996,-1.0839561,0.08082227,-0.09096438
0.19090791,0.15469575,0.2288806,-0.022174733,0.17757545,0.055059597,0.14668483,0.1829013,-0.14228052,-0.03066802,0.13833418,-0.0628449
0.15657683,0.100268334,0.21766222,-0.010906525,-0.15798962,-0.27489233,-0.16370982,0.20805854,-0.4212162,-0.26437134,0.057496175,0.15244922
0.19878809,0.06164377,0.2258335,0.04465665,-0.061151166,-0.6465945,-0.3225993,0.1928688,-0.29044503,-0.8557781,0.081717424,0.52740633
0.110625826,0.13915627,0.216962,-0.01518534,-0.28845415,-0.9103109,0.09501013,0.1918222,-0.44348025,-0.88077605,-0.053808257,-0.11707735
0.17926002,0.1587365,0.21679136,0.030773195,0.36140707,0.3844892,0.20436212,0.2262559,-0.2459095,-0.2717269,0.38155347,0.45645973
0.18701799,0.11067297,0.2940607,-0.0046336954,-0.0824539,0.4834585,-0.080053955,-0.13952515,0.087677866,0.06449008,-0.030776575,0.49916205
0.10302303,0.10966088,0.24663424,-0.05070799,-0.37100366,-0.2050278,-0.16018435,-0.03968206,-0.41100103,-0.14535236,0.07736131,0.107479185
0.25301495,0.10404592,0.2356517,0.04933736,0.23117882,-0.7807538,-0.078217536,0.13572755,0.041445076,-0.48248345,0.06460635,-0.21165308
0.263611,0.041063152,0.25668198,0.08014324,0.14837754,-1.023258,-0.32741576,0.039301798,0.11217293,-1.0762664,0.031167246,0.3884671
0.13423005,0.10194138,0.27964598,-0.09758894,-0.3167743,-0.78580594,-0.20498347,-0.14143622,-0.17079884,-0.9957127,-0.03246868,0.43478444
0.0663277,0.1319026,0.26401874,0.11111308,-0.30512822,-0.56023306,0.13946798,-0.12585086,-0.3367203,-0.41322082,0.15747058,-0.31825453
0.108611844,0.094569266,0.24268097,-0.18401621,-0.4625181,-0.7297603,-0.34374884,-0.05456496,-0.4338924,-0.5067434,-0.007819995,0.16512498
0.30119362,0.15646602,0.15075174,-0.09546396,0.71085143,0.25797114,0.099223614,0.40944505,0.072179765,0.031166553,0.23457834,0.09026548
0.08183525,0.11376538,0.24797006,0.14707147,-0.25095233,-0.5278623,-0.027323246,-0.07431495,-0.44919258,-0.50745547,0.31094685,-0.051028877
0.2449271,0.07142181,0.21853429,-0.011322471,0.10238019,-1.2016244,-0.24019931,0.2347222,-0.11146203,-0.92726064,-0.044081572,-0.036919326
0.18027622,0.07704062,0.21415949,0.016214326,-0.05051103,-0.46276623,-0.27783793,0.23917907,-0.41027558,-0.22841072,0.13029858,0.040552825
0.17219003,0.14084132,0.21742481,-3.2133565e-05,-0.05938868,0.028513882,0.08495882,0.24392325,-0.25381398,-0.10253048,-0.049541276,0.046111584
0.25205168,0.08714712,0.2240009,0.24042642,0.33076012,-1.2606555,-0.10616347,0.18182471,-0.046797305,-0.7111684,0.29461133,-0.3898089
0.18534201,0.072112836,0.21361989,0.18424973,-0.02857476,-0.6482864,-0.2373516,0.24407968,-0.37798792,-0.9007791,0.23790398,0.47470352
0.23564756,0.10314967,0.2112873,0.16498685,0.40138155,-0.799203,-0.061032206,0.24669239,-0.17576206,-0.36372203,0.36526474,-0.33612126
0.21842055,0.06464561,0.28590953,0.011559383,-0.008214317,-1.290231,-0.29075068,-0.09549255,0.078932375,-0.8414101,0.018011548,-0.15822878
0.18647763,0.13591035,0.28983447,0.031050384,0.056463018,-0.6460887,0.066605985,-0.11525513,0.10399988,-0.48714912,0.07416015,-0.22486411
0.14968456,0.108737804,0.2846465,-0.060985178,-0.24580216,-0.6477236,-0.1292981,-0.13020252,-0.085754246,-0.6520625,-0.044915713,0.14413318
0.2090868,0.121035255,0.22161755,0.15310775,0.21743341,-0.87592363,0.025839001,0.21330392,-0.17395544,-0.72684383,0.23455986,-0.15508872
0.30137715,0.16354108,0.14277333,-0.07293674,0.64094913,0.069779314,0.12622574,0.43933153,0.09973106,-0.16355038,0.10665474,0.08775833
0.112673715,0.10433729,0.23719262,-0.045804527,-0.35922536,-0.698158,-0.19104081,0.02260679,-0.44168258,-0.40321803,0.06290527,-0.10079974
0.19720824,0.13883443,0.17441459,0.061762806,0.32926437,-0.20513357,0.09363514,0.45232624,-0.3816726,-0.34107816,0.26740092,0.055768162
0.234595,0.07329316,0.2640956,0.09647004,0.16052182,-0.4397396,-0.21505296,0.008112013,0.026581466,-0.39185828,0.15453598,0.17596427
0.15408622,0.100720786,0.24000326,-0.074851565,-0.26340374,-0.9915749,-0.18180238,0.087353945,-0.3070756,-0.42556947,-0.058014434,-0.37163273
0.28868586,0.039516576,0.22244692,0.15355724,0.27196842,-1.7450813,-0.2936406,0.17864236,0.087840825,-1.023995,0.07414343,-0.3978794
0.2170077,0.09753068,0.21699357,0.0837641,0.28512582,-0.6116617,-0.118214905,0.2320072,-0.25270116,-0.14976966,0.31730008,-0.33214024
0.16394167,0.07706306,0.26773125,0.13710164,-0.119023316,-0.9745165,-0.24970996,-0.05095487,-0.1991466,-0.7742783,0.23211366,0.021009833
0.18755198,0.1634031,0.22811326,-0.018397262,0.076528504,0.012299472,0.18721148,0.18957171,-0.10082385,-0.35807502,-0.010820795,0.18229035
0.28392464,0.07396978,0.19333261,0.058159776,0.29835212,-0.22732264,-0.18675002,0.31792474,-0.014162093,-0.41489744,4.2788684e-05,0.38307092
0.25859126,0.07178694,0.21556269,0.20324731,0.35864848,-0.5916398,-0.1830361,0.22400829,-0.091674,-0.44578475,0.28677803,0.08246899
0.1487246,0.15696757,0.1796737,-0.000745735,-0.0081249075,-0.37620226,0.1928967,0.4427457,-0.43857577,-0.18850744,-0.012217589,-0.38059327
0.22816865,0.108634084,0.2359598,0.0038405773,0.09275201,-0.1253367,-0.075811595,0.14936325,-0.049168885,-0.40746564,-0.0080796555,0.35795835
0.29065394,0.08445042,0.16080248,0.26848838,0.61171496,-0.44738513,-0.10937458,0.42877096,-0.10509205,-0.45562518,0.35557997,0.22937045
0.2517793,0.046592355,0.23632249,0.014032398,0.09632658,-0.84128183,-0.33403322,0.14638257,-0.031228185,-0.75347376,-0.026805542,0.24584487
0.2901128,0.16178577,0.1501765,0.16298321,0.6628473,-1.147698,0.16850492,0.41334862,0.08337894,-1.0106099,0.2740803,-0.18904026
0.19624469,0.075173646,0.21310887,0.21951896,0.15629543,-0.55598134,-0.20798667,0.24214867,-0.36763987,-0.5139873,0.37117466,0.1717706
0.21790105,0.08325908,0.19653171,0.21507074,0.16160795,-1.1334577,-0.1438046,0.34149218,-0.30152828,-0.8881035,0.24129298,-0.08030066
0.29307646,0.045667443,0.18733115,0.26038074,0.38312575,-0.91996264,-0.24929005,0.32928848,-0.023073405,-0.8140756,0.19260135,0.21607819
0.2278469,0.08902363,0.25861353,0.08355094,0.08224545,-0.85846174,-0.14459477,0.038254842,0.018637419,-1.0911124,0.07951445,0.38269445
0.23039308,0.05897153,0.19502164,0.009246399,0.050462473,-0.095484294,-0.30684814,0.3599587,-0.27972648,-0.21590745,-0.03003176,0.42724654
0.12207644,0.14269255,0.23586789,0.049028687,0.028570767,0.5390125,0.15563145,0.10666251,-0.37059075,-0.18622917,0.28932127,0.5632838
0.28908435,0.10860324,0.20803407,0.11180937,0.44643086,-0.6670971,-0.04013267,0.21662295,0.11348489,-0.6011151,0.14771345,0.013640046
0.20352851,0.06320169,0.2009599,-0.006344629,-0.0067616436,0.31057054,-0.32941225,0.32517558,-0.3842059,0.07533574,0.05072342,0.5647812
0.26466373,0.06971893,0.17836276,0.21683407,0.4589693,-0.36155534,-0.19109592,0.3965059,-0.21344392,-0.3328662,0.32785022,0.2233139
0.14188701,0.10428323,0.2672444,0.02908249,-0.21991317,-0.78472644,-0.130148,-0.05758804,-0.21445306,-0.7777606,0.08053488,0.11226305
0.26295963,0.045429945,0.25175583,0.34207386,0.21248615,-1.4856919,-0.24762398,0.04332708,0.107432455,-1.077005,0.30712625,-0.10352653
0.18293317,0.1270067,0.20307198,0.05648614,0.21646129,0.008013278,0.029833555,0.30566084,-0.36861783,-0.22089493,0.2846111,0.20324549
0.20695001,0.11987132,0.24955796,-0.0020403098,0.07928719,0.17515875,-0.028260738,0.08403616,-0.06497976,0.070941925,0.060293436,0.1323559
0.06287971,0.1351366,0.25958765,0.03717886,-0.47369245,-0.1757808,0.118650705,-0.1135685,-0.33057147,-0.6071322,-0.0370868,0.3085201
0.27858254,0.08938964,0.16392887,0.118172325,0.47998133,-0.28460258,-0.120936215,0.4498775,-0.14799058,-0.25072843,0.1951172,0.1235061
0.19697389,0.13549863,0.26538548,0.13529965,0.15451956,-0.67445636,0.095776886,0.00056384504,0.023099333,-0.8987928,0.18946773,0.1408104
0.19084434,0.072336644,0.24424715,-0.0258853,-0.11617323,-1.0015628,-0.29573396,0.095697865,-0.22121516,-0.9294654,0.011468761,0.22456452
0.11019935,0.11244615,0.2605508,0.1361414,-0.24411055,-1.0956472,-0.03724444,-0.06563893,-0.30948693,-0.8166919,0.19412223,-0.2850371
0.3148263,0.032959886,0.15756577,0.22747788,0.5060263,-1.0975841,-0.29227573,0.43538058,-0.020628184,-0.35348117,0.14270884,-0.38221356
0.2115614,0.06685659,0.27896452,0.13717239,0.02827342,-0.54389566,-0.2517076,-0.066816956,0.015052348,-0.839001,0.16928041,0.54549193
0.2720543,0.14441839,0.20422736,-0.014108166,0.3720035,0.17711726,0.07161811,0.24252734,0.10282913,-0.4503367,0.029642656,0.55543685
0.17582606,0.12445358,0.24928477,0.079368,0.19897865,-0.1785924,0.02420047,0.06317566,-0.20447248,-0.24393475,0.3485157,0.04312256
0.17521794,0.10193412,0.25172746,9.0879956e-05,0.0872185,0.32112592,-0.14507493,0.042731985,-0.2515248,0.042966127,0.29536977,0.42455718
0.13545668,0.10826427,0.23241903,-0.09390363,-0.314054,-0.9953505,-0.1556444,0.100741625,-0.38659137,-0.7999221,-0.05609258,-0.019097507
0.3279679,0.08001932,0.13916425,0.23357947,0.8183957,-0.025772782,-0.12846838,0.447788,0.02005604,-0.17206603,0.3789725,0.39282206
0.19314522,0.13532884,0.25303292,0.04205361,0.23176508,0.27696487,0.068403214,0.05658184,-0.093060434,-0.21272904,0.27101544,0.42513904
0.18558507,0.07350692,0.22513305,0.1630587,0.054810382,-0.4983892,-0.24456257,0.17840484,-0.3555181,-0.49849427,0.3059518,0.236213
0.19196834,0.05847416,0.24858,0.2590115,0.034888007,-1.3074201,-0.28708518,0.057740495,-0.2270863,-0.7226036,0.36427444,-0.31362334
0.30682248,0.14065014,0.15799373,0.04035652,0.7246472,-0.5836728,0.06379989,0.37583995,0.09027484,-0.27873904,0.2663047,-0.33538708
0.20577234,0.059048697,0.25718904,0.14696996,0.03706589,-0.40375343,-0.29998013,0.033797562,-0.13775733,-0.6191814,0.2238886,0.5113807
0.31414068,0.0067405812,0.16098046,0.50417036,0.5086863,-1.315815,-0.33741793,0.3988145,-0.014345348,-0.7226103,0.36633793,-0.073060036
0.2104138,0.10557703,0.23287547,0.012684532,0.031003771,-1.4215938,-0.09360796,0.16773272,-0.14244294,-0.96301377,0.011846907,-0.36465243
0.2046086,0.12588228,0.1852955,0.12510398,0.34389487,-0.61206156,0.042699814,0.39062148,-0.3476783,-0.42460567,0.3255485,-0.20548713
0.18706895,0.101931766,0.24698272,-0.028809695,-0.1004028,-0.19638906,-0.13592489,0.08902642,-0.17000723,-0.58422637,-0.026861664,0.52581036
0.20686415,0.095266476,0.24059638,-0.0036234702,-0.017364522,-0.07825173,-0.15184292,0.1282273,-0.14020422,-0.16495043,-0.0058147945,0.23857883
0.17628518,0.10196051,0.2720725,0.13461097,0.11379199,-0.08925692,-0.09141007,-0.05491264,-0.12737286,-0.38551867,0.3315809,0.3840098
0.12213808,0.14598939,0.250652,0.0801418,-0.09336501,-0.68932086,0.18185553,0.047027394,-0.25512576,-0.5462047,0.11873529,-0.33513188
0.20387155,0.14178194,0.24591653,0.0024568122,0.16946799,-0.2299189,0.08316183,0.09866674,-0.049616426,-0.13675171,0.12076191,-0.1757154
0.24127288,0.07083569,0.26186147,0.15979126,0.15511592,-1.3616148,-0.20098943,0.01620245,0.05952266,-0.8489522,0.16487598,-0.29452065
0.24052991,0.052851398,0.20844126,0.027628025,0.08863823,-1.0953082,-0.318439,0.2885841,-0.19458413,-0.9300035,-0.001973793,0.15428534
0.22980931,0.15955979,0.24225071,-0.011603899,0.22390717,-0.53023374,0.14756179,0.098898634,0.11050126,-0.9996317,0.025505759,0.32278815
0.22715664,0.09387017,0.27293062,0.015560502,0.09298772,-0.5433418,-0.14291106,-0.031369314,0.082006484,-0.048354268,0.043667234,-0.351299
0.2511716,0.06134877,0.23746976,0.17990027,0.21442813,-0.8446781,-0.23314947,0.13083789,-0.027875602,-0.6874115,0.19176826,0.101610094
0.1507338,0.079036675,0.235315,0.03951595,-0.21212691,-0.43827012,-0.2929004,0.089051545,-0.39537987,-0.7131796,0.14999357,0.5485573
0.20486069,0.063918374,0.2908595,0.0055821687,-0.05492519,-1.4019507,-0.31354657,-0.12550001,0.04984042,-0.7246375,0.033549026,-0.36476138
0.2074307,0.1029069,0.23652051,0.18470861,0.10962641,-0.5485121,-0.05527243,0.14194721,-0.13901693,-0.98684424,0.2128425,0.50402915
0.2143977,0.085390456,0.21551818,0.14353257,0.13369294,-0.773084,-0.15683891,0.2483725,-0.25035346,-0.65327036,0.19740698,0.046531558
0.22425558,0.071874745,0.19296212,0.017355684,0.06524763,-0.80117285,-0.25121337,0.3709864,-0.3041439,-0.70312214,0.00087624043,0.15374807
0.17327034,0.09005928,0.2283764,0.18680501,0.02647572,-0.79414505,-0.14388521,0.15920344,-0.34559035,-0.6556877,0.29958966,-0.009102404
0.26158735,0.16608064,0.17345844,-0.09519387,0.53371954,0.30081093,0.14766285,0.37690586,-0.030700624,0.03140962,0.1951901,0.0946022
0.19131537,0.058191456,0.19930297,0.14393708,0.010691543,-0.5104392,-0.3297319,0.3203039,-0.45087412,-0.62081116,0.22934744,0.43216738
0.14394297,0.15435445,0.22085871,0.04865272,-0.019039737,-0.76477975,0.20038328,0.22029144,-0.30321646,-0.67786276,0.069998376,-0.28958338
0.23221058,0.12005401,0.17772652,0.24597624,0.3957536,-0.7364933,0.042378575,0.40834624,-0.23759802,-0.8348284,0.33090976,0.1269032
0.17448701,0.12719788,0.2762937,-0.0321114,-0.10095839,-1.092165,-0.0012747347,-0.054203257,-0.016198665,-0.80438226,-0.044175655,-0.2837639
0.11498001,0.11632943,0.27487645,0.108075306,-0.20690478,-0.9431399,-0.018658847,-0.12076982,-0.22347058,-0.67423695,0.17611107,-0.2804108
0.24999756,0.16617647,0.16160607,-0.054437116,0.3866209,-0.08013215,0.15791258,0.4552238,-0.08392745,-0.46835178,0.021109335,0.22144106
0.17331861,0.08608645,0.24432468,-0.011791885,-0.11939335,0.016947968,-0.23683146,0.08195923,-0.2748608,-0.22023427,0.07590035,0.47311923
0.22320604,0.06952833,0.20279545,0.10237007,0.16031744,-0.41507307,-0.24527612,0.31448194,-0.30011904,-0.34350306,0.17639238,0.18236467
0.19837518,0.08312574,0.24481516,0.094577186,0.060622197,-0.42323795,-0.19663961,0.096490234,-0.20016062,-0.42053193,0.19875905,0.1925995
0.22506866,0.091299504,0.26034817,0.1608817,0.24379067,-0.101710476,-0.11922686,0.018274352,-0.013589233,-0.45986432,0.2870007,0.49743167
0.084299415,0.11597579,0.24643898,-0.048345722,-0.40544447,0.11443874,-0.11966252,-0.07669149,-0.44171733,-0.027204752,0.11030156,0.27046016
0.19046512,0.07605011,0.28933987,-0.033674173,-0.11485382,-0.10990423,-0.27826506,-0.12551565,0.0074896216,-0.39301503,-0.0017750673,0.5633521
0.19097379,0.15182091,0.2741397,0.001564465,0.08325116,0.023459427,0.13570958,-0.03697469,0.08310494,-0.34028763,0.038345642,0.22839805
0.22244039,0.10840311,0.1943265,0.2051129,0.38834244,-0.6509019,-0.025535852,0.3336175,-0.27872086,-0.4926557,0.38763517,-0.08711669
0.23699221,0.05845999,0.26536828,0.220572,0.2660799,-0.39083174,-0.2564948,-0.011832878,0.0097206235,-0.41753995,0.34586757,0.31269076
0.17836659,0.16457221,0.2795523,-0.07608869,0.32633644,0.527833,0.20010117,-0.082979314,0.043861687,0.018746376,0.37389037,0.29659113
0.26120046,0.069672555,0.23773748,0.124207474,0.32730305,-0.29125252,-0.20898984,0.1208587,0.0057833493,-0.2175203,0.22457364,0.15890113
0.2371154,0.047423437,0.23456302,0.27279013,0.12595758,-0.98832846,-0.28092998,0.145464,-0.10046929,-0.9714986,0.27217323,0.28650722
0.27257085,0.09450897,0.19209531,0.04930525,0.29075512,-1.0469037,-0.112306535,0.33015096,-0.04484141,-1.0183766,0.017376669,0.09312579
0.16480316,0.14266777,0.22025162,0.07197464,0.09441149,-0.39912188,0.12990683,0.22333094,-0.29091448,-0.50342137,0.17333081,-0.025032252
0.32098365,0.038524073,0.16466352,0.2311759,0.5313507,-0.71719974,-0.26678604,0.38775015,0.039517283,-0.37554276,0.15593389,0.0009263456
0.26618314,0.16216226,0.18036595,-0.078136444,0.68418026,0.17080408,0.13930303,0.32527843,-0.021228284,-0.07436228,0.38435104,0.08259255
0.27451187,0.15945874,0.15929762,-0.047006465,0.5680493,0.36338085,0.12636945,0.42569643,-0.01887983,-0.1746856,0.1647898,0.40399447
0.28761238,0.075394414,0.18511683,0.37505126,0.49893197,-1.3513238,-0.117851436,0.31820828,-0.024939924,-0.80138326,0.37510747,-0.29441112
0.090677254,0.12546772,0.26797044,0.3323936,-0.11864564,-0.7124253,0.18571368,-0.10275322,-0.2555448,-1.0652115,0.34584954,0.09264907
0.13442641,0.12046701,0.25425044,0.008125836,-0.09082964,-0.482307,-0.031969815,0.0049321204,-0.3015617,-0.053642035,0.20638928,-0.39869845
0.15567409,0.07733409,0.22181699,-0.03461964,-0.23083663,-0.7058989,-0.3235062,0.16470277,-0.44073185,-0.72396016,0.06161391,0.3399293
0.25316298,0.03350672,0.2614182,0.3910534,0.18869388,-1.5997908,-0.2971115,-0.0033606738,0.094926685,-0.9767233,0.37442967,-0.27402312
0.20066431,0.102818385,0.24398403,0.079702646,0.16941288,-0.2560976,-0.09536594,0.10065034,-0.17683005,-0.24374181,0.2601051,0.087387055
0.20857978,0.06603937,0.20007445,0.11144095,0.12359508,-0.93133235,-0.27837223,0.32538813,-0.3829986,-0.33818096,0.21948978,-0.3099768
0.20980473,0.056168716,0.19892344,0.022144943,-0.010115517,-1.5346613,-0.34525397,0.3385535,-0.36427012,-0.79742765,0.033908226,-0.39240363
0.2759169,0.07409913,0.22672325,0.054628775,0.24494754,-0.93227565,-0.19053932,0.16815442,0.07270345,-0.5504505,0.011634119,-0.18382305
0.26237953,0.1518379,0.20815179,-0.043902252,0.4581494,0.05081611,0.09920132,0.22765869,0.059500605,-0.026933432,0.17297998,-0.031006157
0.19652587,0.15502393,0.21488431,-0.037404157,0.3113392,-0.127,0.14588457,0.2429035,-0.20323455,-0.03443694,0.27385715,-0.24412973
0.1758235,0.10272873,0.27177045,0.11185312,0.045810547,-0.8550822,-0.09304565,-0.047055386,-0.117147505,-0.45636314,0.24470645,-0.31194615
0.17286654,0.1521951,0.2499948,0.11711664,0.27766702,-0.5963613,0.19929114,0.06467496,-0.11863744,-0.50474656,0.3469115,-0.2790771
0.15401067,0.083991826,0.25117797,0.20509075,-0.16402788,-0.88913965,-0.18544132,0.022806898,-0.2804988,-1.0625186,0.2635603,0.3121492
0.086049706,0.13357654,0.24312095,0.03420616,-0.37817177,0.1847221,0.08838773,0.009239584,-0.3862629,-0.342561,-0.002778504,0.4325268
0.3213528,0.08105896,0.15849018,0.30351192,0.71730894,-0.56155795,-0.10970272,0.37671113,0.058670014,-0.45370132,0.35391402,0.15232763
0.21248938,0.15342578,0.2656328,0.1166519,0.3448473,-0.5557216,0.1716316,-0.016262561,0.116308,-0.646635,0.2785441,-0.051876158
0.11884956,0.13646409,0.24845733,0.02348008,-0.23155423,0.29904762,0.08976033,0.04086864,-0.2901282,-0.13144451,0.016693234,0.33772716
0.21729732,0.111521944,0.2187607,0.043750264,0.12338646,-0.30730578,-0.05391109,0.23582575,-0.17019224,-0.54951894,0.07034431,0.30003503
0.1320082,0.14937109,0.27973074,0.034725994,-0.017062731,0.21703297,0.17936209,-0.087884195,-0.093459666,-0.19489759,0.16135299,0.22944519
0.1803375,0.10430122,0.21809922,0.00117394,-0.014635839,0.40057066,-0.12044795,0.23069024,-0.3419122,-0.030232787,0.096877195,0.5510801
0.19861464,0.073411025,0.27429032,0.06783102,0.037957598,-0.20642471,-0.2591722,-0.050991133,-0.07414591,-0.30340642,0.18767202,0.35393837
0.10236197,0.11861346,0.25227293,-0.036250602,-0.40571705,-0.3175113,-0.072306305,-0.0439234,-0.34482345,-0.2492094,-0.01906,0.012388617
0.24504906,0.1621502,0.1823111,0.16265936,0.5663708,-0.780751,0.20044902,0.34054762,-0.057142913,-0.7748698,0.35130513,-0.12282282
0.16971284,0.0956714,0.25172698,0.056239855,-0.04192507,-0.1932042,-0.15978988,0.044677272,-0.24719092,-0.3524866,0.1809048,0.31158444
0.14751543,0.09489211,0.21742871,0.27159864,-0.101561934,-1.1099936,-0.09122869,0.19224346,-0.4340722,-1.0573206,0.3212282,-0.009295225
0.16159458,0.12712596,0.26253474,0.04682729,-0.0788114,-0.617746,0.027848095,0.0066415817,-0.13100189,-0.7889651,0.06268628,0.1387578
