x,y,z,R,P,Y,t1,t2,t3,t4,t5,t6
0.18888813,-0.26676148,0.2158212,0.079634614,0.37623277,0.62951773,-1.4238431,0.14310563,0.3127284,-4.017238,0.47706497,-0.2809764
0.091855064,0.11549608,0.26917228,-0.38295984,-0.51633996,0.6167967,-0.2820028,-0.22127071,-0.28995848,-1.0605712,-0.20159623,2.1083856
-0.09229368,0.060506776,0.035543982,0.9226528,-0.41564763,-1.4075953,0.64779294,1.5147451,-1.4762638,-2.7340543,1.0209253,0.47824085
0.07888913,0.13533685,-0.12113553,-2.00681,-0.2863034,1.2485158,-0.94549906,0.3228823,-2.0075307,-3.886515,0.42578775,0.6367146
0.12113035,-0.007504288,0.15149067,-0.9573633,-0.6151717,1.2129889,-1.1662805,0.31525296,-0.70876074,-2.7197237,0.71257925,-0.92257327
-0.038634256,0.14500046,-0.0063449033,-0.65400213,-1.0374902,1.2049167,-0.25217915,0.5409949,-1.7074435,-4.8591733,0.08566126,0.47132027
0.1281247,0.0017389664,0.1231205,0.1572464,-0.19858919,-2.226005,-1.0127931,0.58988297,-1.0886159,-0.473104,0.5772252,-0.8203423
-0.08267488,0.18594065,-0.027965592,-1.5836898,-0.02474701,1.7276653,0.037239075,1.4288772,-1.9339097,-4.717083,1.5881197,0.6622604
0.0587531,0.12041208,0.04814099,-0.22660825,-0.22978678,0.02867738,-0.8470727,1.2802411,-1.697398,-0.26096964,0.100216895,1.1575598
0.17465407,-0.08671664,0.15252586,0.8952629,0.45983866,0.9931194,-1.247009,0.27279776,-0.7994853,0.20022535,1.4905291,2.3432465
0.15426025,-0.015843628,0.03653261,0.51971316,0.4148312,1.9657712,-1.2229857,1.9045869,-1.3618145,-1.8867486,-0.23788907,-1.1597497
0.19053759,0.19313905,0.12272598,-0.2167291,0.9540288,1.0151176,0.35534406,0.5999259,-0.42888772,-0.23442793,0.8035378,0.79941165
0.25269672,0.03340833,-0.13898522,-0.16338654,1.1702231,2.844687,-0.54226434,1.8160807,-0.37291956,-4.2180834,0.64545286,0.76647866
-0.018241199,0.11232894,0.08185111,0.47628248,0.14243847,-2.2567163,0.70162475,1.0332505,-1.1611656,-1.7309093,0.45999438,-1.222476
0.20268868,0.038608253,-0.25731754,-0.9458234,0.90360785,-1.3175111,-0.9170579,2.031952,0.08241749,-4.351144,1.6903703,1.8019861
0.16370411,0.0677187,-0.19490893,1.4464256,-0.036243122,-0.7168443,0.031463146,1.7354475,-0.114338994,-1.6918406,1.6444237,2.4708948
0.10938068,0.24270304,0.019921504,-0.42481652,0.6904846,-0.3853039,0.7019731,1.1882125,-0.51529527,-1.022666,0.19890639,-0.15876615
0.11587916,0.011637801,-0.06191437,-3.0449562,-0.14853683,2.9309914,-1.5297511,-0.42178845,-1.5284035,-2.9788692,1.0941789,1.3263015
0.06810955,0.119986616,0.114640564,-0.04605541,-1.1731313,-1.7419412,-0.053024054,0.5501733,-0.77517927,-3.1033645,0.94871455,1.4403514
0.06809373,0.046767656,-0.062110968,-0.19451033,-0.9710022,-1.7728432,-1.0963697,0.04613453,-2.025104,-0.7766433,1.3537362,-0.65560603
-0.12680009,0.079622574,0.0229155,2.353722,-0.9888157,2.592976,0.42128623,-0.60721815,-1.2678063,0.1476984,-0.09499787,0.1757549
-0.15456139,0.080666676,-0.050195295,2.7968097,-1.0190449,0.5368177,0.42927873,1.36581,-1.8101004,-3.3368251,1.6518023,1.0319012
0.20137663,-0.12985823,0.25432074,0.33343142,-0.8432971,-1.1771896,-0.9107709,-0.07568854,0.32056022,-2.1068606,0.9999991,1.8013994
0.16084646,0.007883579,0.2755977,-0.7834775,0.5052547,-0.93345416,-1.4502816,-0.4380671,-0.2640525,-4.670475,0.58866704,-1.0863888
0.14025034,0.24479137,0.24170086,-0.9994817,0.9319938,0.31652564,0.59970534,-0.08896065,0.085922,-0.041251183,1.2455614,-0.777985
0.08122663,0.11028921,0.067153916,-0.019901754,0.2789439,-1.9178826,-0.65055174,1.9818732,-1.6131831,-0.8722544,-0.23993123,-0.43180156
0.19481768,0.07670304,0.23736551,0.10073836,-0.090555355,0.70889807,-0.22321832,0.13559979,-0.21572196,-1.4565904,0.11874047,2.379406
-0.14042605,0.14740331,-0.025446622,-1.5490304,-0.8549217,0.52626866,0.25093472,1.3440295,-1.8711431,-4.1810145,1.2681417,-0.6123327
0.17361245,0.018587824,-0.3365562,2.4674306,0.6786056,-1.616924,-0.7204745,2.0673475,0.16911268,-1.3496113,-0.050186962,1.9315423
0.22764099,-0.21143693,0.20654044,1.3719056,-0.050453387,2.9324632,-1.0476787,0.024929166,0.21942282,-0.6172128,1.1695628,-1.6264436
-0.041084457,0.15674385,0.064828284,-0.06828136,-0.077453166,1.8410697,-0.40971696,1.8200454,-1.9981302,-2.7643657,-0.085816175,-1.2625725
0.08066261,0.2930007,-0.13924363,-1.2966862,0.72925365,0.051007852,0.892429,1.4739772,-0.11369836,-1.4719574,0.06872296,0.12303257
0.21846093,-0.13261671,-0.28596273,2.3089206,-0.3288861,-1.3858565,-0.86817914,1.4569088,0.36903,-0.9183059,1.0749927,1.3953096
0.13656156,0.044152156,0.24055454,-0.89260924,0.1572643,0.97480977,-1.4642465,-0.4295423,-0.4918604,-4.883908,0.24345636,1.0826932
-0.013088783,0.08902151,-0.022540156,1.0204031,0.058704767,-1.0473691,-0.39733112,1.1265366,-1.9790243,-0.8679695,1.5157819,-0.25162518
0.21748042,-0.014803365,-0.17621583,1.1180718,0.87743217,-0.04348466,-0.7014441,2.0199537,-0.3565588,-3.2963858,0.380549,-1.8116874
0.07415596,0.04106107,-0.047651567,-2.6998286,-0.8807624,1.8327552,-1.3878987,0.10238755,-1.5868115,-2.280152,1.2060399,0.10337806
0.08509646,0.042664547,0.2706602,-0.03647888,-1.1250577,-0.6281756,-0.72231734,-0.36532125,-0.17031157,-2.1364295,0.7650942,2.056057
0.14770365,0.0766255,0.1088726,-0.025653971,-0.21121912,1.0324676,-0.34764433,0.87922955,-0.8589016,0.20908737,-0.23259237,1.1742364
0.27404016,-0.2178953,-0.07334985,2.0554,-0.09226408,-1.0515313,-0.9227781,0.8827243,0.13731742,-0.6897187,1.2572267,1.129465
-0.008086877,0.14370139,-0.38753852,-2.776762,0.4988717,-0.34239647,0.55785215,2.066647,0.42291307,-2.8597925,-0.04511124,0.031779528
-0.085777424,0.068401866,0.060978577,0.20994657,0.18691155,1.417484,0.71294796,1.6117433,-1.6331542,-1.4727209,0.28148067,2.1939883
-0.12521073,0.050153553,0.01584826,2.5759654,-0.4702769,0.8997503,0.93369853,-0.041116714,-1.2154841,-3.2285795,1.171247,1.9764274
0.17470735,-0.04122205,0.14373669,0.98066586,-0.30551288,0.13723047,-0.6558641,0.46143234,-0.5900545,-1.2048845,1.0530658,1.76502
-0.08510576,0.083083905,0.058212627,0.3735412,-0.27288812,0.10628081,0.5933336,1.1541246,-1.5178767,-2.0521238,0.15935951,1.4869822
-0.018424291,0.29642096,-0.081158765,-1.05996,-0.86412907,2.180851,0.9578589,1.3187698,-0.19778109,-4.430364,1.4088407,-0.94133013
0.2914588,0.11761005,-0.16405065,0.47680354,1.2310237,-1.0088891,0.008282781,1.4221696,0.09832668,-2.5671887,0.3003667,2.0296907
0.20425007,-0.1261889,-0.27954656,1.2646462,-0.017611902,-1.8589902,-0.9301197,1.5911363,0.50751805,-2.401927,1.0479023,2.2020426
0.033524662,0.17283541,-0.11920551,-2.3633323,-0.36827913,2.5857697,-0.90515965,0.9809766,-2.0442681,-3.27008,1.243341,1.5155131
0.15878987,0.18383676,-0.21311761,-2.5529373,1.2344601,1.9771857,0.36612415,1.8163906,-0.21369243,-0.5994849,0.300187,0.07783413
0.19712016,0.19752999,0.084873386,1.7829248,0.7091267,0.21823162,0.5566789,0.46891904,-0.024408817,-1.3545837,1.6459589,2.3678427
0.05430469,0.21629351,-0.28797078,-2.4652922,0.9197939,2.460313,0.84046924,1.811273,0.10102129,-1.0996835,0.390961,1.3706166
0.13540196,-0.012819774,0.15285668,-0.7537688,-0.10403897,-2.7764318,-1.3398702,0.3391325,-0.84038365,-3.354126,0.26232386,1.9735087
0.18192853,0.18219364,-0.22807588,-1.1247663,0.9283676,2.2456656,0.15801692,1.795452,0.04437661,-3.8438666,0.68324983,-1.4005657
0.392611,0.014584474,0.11201116,-1.0225394,0.6862504,0.6116974,-0.44014013,0.31778783,0.4630382,-4.624488,1.0565188,-1.4627738
0.2218965,-0.06964437,-0.04857704,0.55548424,0.9038365,1.6965572,-1.0542688,1.7610155,-0.7679045,-4.57253,0.5553507,1.0180026
0.16472292,-0.09161627,0.052171003,0.3969491,0.13507564,-0.85004115,-1.2360823,1.3362356,-0.9583386,0.033513546,0.040267497,0.379475
0.1534906,0.08424865,0.23324314,-0.73107433,0.20428596,1.8656305,-0.72723734,-0.13046253,-0.49171662,-5.0153294,0.7115267,1.4659218
0.067937866,0.11212847,0.07628551,-0.68108094,-0.54478765,2.2831228,-0.73322386,0.4915582,-1.3299028,-4.628982,0.053477973,1.583238
0.14947098,-0.21309201,0.06375833,0.5952591,-0.12328061,0.16320804,-1.4030821,0.994511,-0.4928409,-4.4053283,-0.22657478,-0.29336798
0.1080659,0.07984376,0.18565267,-0.1703944,-0.79954547,-1.7712041,-0.39085162,0.21376526,-0.6013806,-2.7490273,0.4427309,1.4055833
0.027565606,0.13071749,-0.114650145,-3.0161505,-0.5940252,1.3289492,-0.020478845,-0.5561466,-1.9631574,-1.3280153,-0.09512684,-0.5731522
0.21269837,0.18837766,-0.027822934,0.14367114,0.8440872,0.59362674,0.35256982,1.2649401,-0.3122475,-1.9747744,0.38737416,2.4589553
0.0782793,0.18156609,-0.12729242,-0.36534762,0.6737354,-0.94130933,0.49861944,2.034531,-0.46470666,-3.06884,0.8200634,1.5437421
0.1985361,0.12483977,0.10281429,-0.9564988,-0.32220113,-2.3165603,-0.23987675,0.70318294,-0.46924472,-3.983537,1.1397293,1.9680768
-0.05855287,0.12577103,-0.021848477,-3.131752,-1.0914547,-1.0525149,-0.02277255,-0.60313773,-1.4876771,-3.5096915,-0.043552294,-0.703969
0.15267028,0.042908467,-0.16528623,1.7818614,0.3698991,-1.2023098,-0.20787394,2.0600905,-0.5809976,-1.2805703,1.0219243,1.7832218
0.11237479,0.14310645,0.23440044,-0.18538319,1.11335,2.1021633,0.18489957,-0.20789671,-0.37839198,-0.085810184,1.7058156,1.8434418
0.15922202,-0.051205043,0.2704202,-0.14953987,-0.11419367,0.7207873,-1.1356661,-0.09793401,-0.2520944,-0.24221563,0.17151004,2.1000466
0.23025253,-0.013705973,-0.022734903,0.37220395,0.69882566,-2.453362,-0.7024238,1.6207458,-0.73657775,-1.0146728,-0.2414921,-0.69388855
0.07478409,0.1110775,0.0592294,0.32823184,-0.14623229,-0.2926773,-1.2055668,1.7965213,-1.9917737,-0.533936,0.51352674,1.3969613
-0.06590674,0.10810774,0.0636915,-0.027660348,0.01168192,-0.6146908,0.51798165,1.5964004,-1.5577672,-0.8898225,-0.023482457,-0.24336398
0.101620145,0.11927004,0.0139067285,-0.2729832,-0.07532906,-1.8036722,-1.3603569,1.2499937,-1.9827228,-0.040052414,0.45063156,-0.39938593
0.13194694,-0.016191598,0.05421794,-0.6099649,-0.4251105,0.55014884,-1.1611061,1.2393781,-0.99189115,-2.9332862,0.9685928,-1.4775395
0.08515961,0.100229904,0.12253104,1.4419773,-0.18884552,-0.8193357,0.3053609,0.42666328,-0.6042187,-2.039829,1.3617349,0.61627877
-0.06010093,0.08199087,0.19348775,0.7494042,-0.28581735,0.039854854,0.04869461,-0.62357056,-0.75915897,-0.7914243,1.1160731,0.14283383
0.26415697,0.024864083,-0.13140714,1.0600587,1.1077434,2.2023036,-0.3939774,1.6836921,-0.3562709,-3.7560852,-0.02842167,0.77743924
-0.12806205,0.05893141,0.07437055,-0.33788642,0.06300085,-2.2700403,0.8701564,1.9654056,-1.8183001,-2.31572,-0.2266053,-0.8476243
0.16363387,-0.3358479,0.073953465,1.2298558,-0.5679343,-1.728932,-1.3342494,0.4583968,0.35058475,-1.2417321,0.8470095,0.8252076
0.18124676,-0.30424818,0.0366031,0.85081345,-0.3627866,-0.82110584,-1.2950529,0.7299582,0.16705346,-1.7923608,0.5778147,2.3694196
0.12461088,-0.0042094775,0.13980588,0.3527157,-0.019663401,-2.8104098,-1.2671194,0.049363434,-1.1214399,-0.12404537,1.4055455,-1.5057503
-0.073548116,0.099120304,-0.11488261,2.4307904,-0.54100364,0.5447067,0.7651528,-0.47346523,-2.0159085,-3.3615327,-0.21560863,1.7514833
0.12146749,0.11132124,0.06114706,0.032250285,0.20707032,-0.71698266,-0.11906135,1.3488172,-1.0643368,0.09191322,-0.0753787,-0.6854973
0.16104878,0.07082931,-0.12518732,-2.5863628,0.76530045,2.0926726,-1.2910309,0.35885704,-1.9641682,-4.0457435,1.3744042,1.1421746
0.14765503,-0.21963549,-0.043702554,2.1795928,-0.23562624,-0.7643581,-1.3694395,1.104456,-0.5132202,-0.39932442,1.6229019,0.9088968
0.01025765,0.12740314,0.024887618,-0.09433567,-0.6855025,-2.7128136,-0.72397506,1.1854966,-1.7771548,-1.5815442,0.3733248,-0.4886669
-0.07020877,0.14225659,0.016795693,-1.5184431,-1.2964544,2.2715523,0.08271563,0.05084318,-1.4534714,-4.324034,0.3868153,1.7998792
-0.053011104,0.14095746,0.051297776,-0.0753098,-0.2836232,2.671442,0.7256752,1.5599025,-1.2116103,-3.606122,0.56467456,-0.76426435
-0.07006711,0.06462778,0.018267035,1.3442154,-0.4979508,-0.14463077,0.3507172,0.56209433,-1.4987341,-1.9846396,0.7738492,0.6841887
0.22468413,0.2023159,5.3878874e-05,-0.31537592,0.7844731,0.4034536,0.30623448,1.1482567,-0.3161285,-1.4076247,0.0037083626,1.3750957
0.011008304,0.13735889,0.055908583,-2.4104428,-0.8928252,2.7458682,-0.6118914,-0.37689915,-1.1020453,-2.9522,0.58885354,1.6764725
0.1083559,0.124599606,-0.032834217,-2.5051842,0.3161369,2.1408095,-0.7902337,-0.07277322,-1.454594,-3.8172092,1.4210248,1.4929987
0.09131966,0.19036335,-0.03458807,-1.4537295,-0.43483126,0.96876514,0.06354749,1.5551125,-0.86604226,-4.3530846,1.7205279,-1.2932663
0.03323315,0.21779874,-0.16739014,-2.803217,0.4534537,0.74661213,0.8615097,1.7145897,-0.55006254,-0.13980103,1.4353886,-1.474318
0.07325189,0.07580638,-0.01923924,-0.6993859,-0.9092068,-2.9581132,-1.5282266,0.90925145,-1.8623765,-1.3975801,0.8997808,-0.1420331
0.027958898,0.14860892,0.046916164,-0.3170134,0.73193204,0.7414774,0.4808203,1.4113649,-1.2896705,-0.16839266,0.66561085,0.3138944
-0.026620328,0.13286711,-0.02770801,-0.33728588,-1.0490295,-1.799374,-0.29160047,0.27815866,-1.8188411,-0.20284986,0.47010046,-1.1847734
0.30798104,0.17176278,-0.10137886,-0.2807771,0.9505139,-1.432704,0.1356101,1.1725535,0.18636966,-3.2741337,0.38459003,1.5246731
0.12078844,-0.06612881,0.066760115,1.9201186,-1.112283,1.3693995,-0.97940207,0.66270554,-0.76260686,-1.7422233,1.7065201,2.524899
-0.14449094,0.07517237,0.023069913,2.1946743,-1.2149509,-0.25178534,0.6368488,-0.43517506,-1.3435104,-4.68545,0.3365187,2.340487
-0.0101116,0.14659178,0.14704323,0.26725626,-0.283453,2.464204,0.6450912,0.5259472,-0.84797287,-2.644839,0.072322756,-1.8632199
0.12882093,0.055878323,-0.05621225,1.7557601,0.6103736,2.471953,-0.23187613,1.993708,-1.1343315,-0.82770014,1.0879219,-1.5341356
0.18911517,0.08404766,-0.0008606622,-1.6959373,0.98070353,3.0648754,-0.70122224,1.3443133,-1.1725528,-5.002957,1.591599,1.2250377
0.061743945,0.14732607,0.09511661,-1.5758113,-0.49990168,-1.4382544,-1.0540469,-0.5936167,-1.0282683,0.34636736,0.049629837,-0.21095419
-0.12160928,0.12778099,0.11344535,-2.4623659,-0.62955964,0.78921384,0.54682434,-0.53434056,-0.7497016,-3.9759262,1.5194974,1.0014559
0.045717992,0.07271235,-0.014015053,-2.0286345,-1.4049224,-1.6890135,-1.004941,-0.44902027,-1.5834416,-1.2794042,0.90476924,1.3691653
-0.04357076,0.11006587,0.07672786,0.16690536,0.029570246,2.0594049,0.12714541,2.0904818,-1.6943184,-2.7170842,0.42138845,-1.597342
0.08233035,0.14680535,0.1908869,-2.0728722,-0.068263195,-0.7002125,-0.6739522,-0.52746,-0.3787831,-3.850319,1.3943877,-1.6098284
0.33893564,-0.15612987,0.031932905,2.239915,0.040585384,-0.34692487,-0.66968364,0.37939572,0.42552328,-0.6312995,1.6268656,1.8288392
0.06160567,0.024465576,-0.0027916264,0.431988,-1.2525836,0.278559,-1.1921049,-0.55505276,-1.6572044,-1.1971958,1.5569808,0.7181665
0.071716666,0.14000125,0.26697037,-0.03633412,-0.017786836,-0.77461344,0.14851642,-0.15529484,-0.36768818,0.078760624,0.512083,-0.99126273
0.122484505,0.12699814,0.20763272,0.26852214,-0.5051818,0.02715642,0.10201812,0.2331298,-0.34655702,-2.7211702,0.46130162,2.5655937
0.23623171,-0.16212389,-0.09132243,0.45474175,-0.037510067,-2.8390083,-0.98825794,1.3416321,0.021836758,-2.8157434,1.0200927,1.1588596
0.17729591,0.030024782,-0.37334228,2.5882502,0.78655297,2.9025748,-0.6874192,1.9410375,0.46775365,-0.7343936,-0.24466681,-0.3610785
0.12869005,0.16118573,0.20793414,0.24704278,-0.19365497,2.889392,0.30802107,0.27765077,-0.27643204,-2.5568411,0.31368858,-1.1689842
0.23808706,0.21046227,-0.23826422,-1.2670437,1.2715527,-2.7182963,0.32704103,1.4169654,0.40606833,-3.0206258,0.3429157,-0.9740622
-0.18566072,0.065873735,-0.08003923,-1.4742023,-1.2251652,-1.1875281,0.88050854,0.7415863,-1.9989376,-4.634401,1.2316899,-1.5995314
0.13454369,0.007904105,0.1900902,-0.87125796,0.13432348,2.0770943,-1.5552758,-0.11637008,-0.7474463,-1.5298703,-0.1463153,-1.1159666
0.20716606,0.24658403,0.10693283,0.7411965,0.010840215,-3.0033944,0.59073246,0.41037917,0.43200755,-2.5221167,1.3519189,-0.7477621
0.023211002,0.103774786,-0.0053360965,1.9455574,1.2810982,0.14626402,0.1771009,1.682469,-1.6099327,-0.44543123,1.6101263,2.1089501
0.15906292,0.27621663,0.2103054,0.14465587,0.86680096,-1.393717,0.77042973,0.098098874,0.31153607,-1.2675657,0.6769366,-0.6871004
0.20037079,-0.038482234,-0.06688428,-2.1938288,1.2466303,-1.5321805,-1.3577595,1.908322,-1.0355656,-4.8227253,1.7310841,1.6956662
0.13718073,0.32430786,0.06563744,-1.3065088,0.85702085,0.8405537,0.8321308,0.62607634,-0.041778088,-0.18320227,0.82148916,-0.42629445
-0.10035809,0.05989618,-0.12619783,2.384225,-0.32070035,2.0292256,0.424623,0.5818517,-1.9693778,-2.6043816,1.1364098,2.510047
0.049630806,0.19716507,-0.041273184,-1.1125906,0.5414989,1.7420412,-0.6873238,1.1499609,-2.0499353,-4.9687686,1.2603078,1.3795267
0.17899507,0.12336538,-0.18937565,2.7506826,1.445677,-0.33569586,0.008451581,2.0093722,-0.40915704,-3.7174067,-0.10290305,-0.14947677
0.20838746,0.2874292,-0.04347943,-1.6033366,-0.2650374,-2.1823924,0.3840238,0.89508784,0.10114646,-4.803591,1.4882822,1.5479249
0.10795808,-0.26117024,-0.023424208,0.10279407,-0.8348222,0.8746428,-1.458978,1.0473944,-0.010270596,-2.2346036,1.2372208,-1.2595314
0.08669785,0.18102854,0.17240267,-1.2121918,-0.8618805,-2.2048311,0.11831987,0.196028,-0.3982594,-3.9823086,1.2017014,2.3847156
0.13363321,0.19713907,0.34876892,0.0036005243,0.18017495,-1.6300795,0.44560254,-0.42179173,0.50979257,-0.8331733,0.10889757,-1.238626
0.06847724,-0.00074749533,0.075907655,0.07639306,-1.3044775,-2.8185205,-1.3073525,0.34605467,-1.1960921,-1.5236938,1.2160423,-0.64714265
0.1553187,-0.14906047,-0.35549524,2.0817606,0.34137553,1.721218,-1.4862399,1.8157305,0.4817407,-4.0212746,0.34993774,1.0420712
0.10676296,0.03708639,0.07312053,-0.3923183,-0.30135512,2.5484302,-1.3360982,0.6922357,-1.417753,-0.6497736,0.34352845,-1.7642266
0.0911808,0.093257666,0.080411,0.02886293,-0.42093265,-2.2533813,-0.3011471,1.0953404,-1.1023041,-2.7704372,0.41536534,0.811504
0.29059348,0.019613419,0.17486593,-0.8395163,0.20790716,2.793235,-0.5622808,0.3113616,0.0041003227,-4.202795,0.98253447,1.0396672
-0.052632563,0.14579384,-0.041066572,-0.8929877,-1.2030303,-1.0029386,-0.26037824,0.59632075,-1.8352553,-0.28398514,-0.10866213,0.19894421
-0.17311664,0.03954368,-0.017482167,2.0040154,-0.9704599,-1.4819797,0.56292045,1.6875764,-1.8464054,-3.1483426,1.6514027,-0.27467155
0.04466104,0.14486392,0.0059608445,-1.777842,-0.63289386,-0.4280646,-0.7442068,-0.25347367,-1.4487935,-4.5083246,0.18467674,-0.4812193
0.018562615,0.16350386,0.071190335,-0.21819104,-0.031505983,2.9309204,-0.72898215,1.8883289,-1.9528222,-4.073076,0.17584068,1.4578158
0.17558962,-0.04013224,0.0030284561,0.22547127,-0.29625914,0.90859777,-0.83044904,1.5224289,-0.71927214,-2.6656444,0.9029996,-1.7531147
0.048876137,0.068208665,0.03369136,1.0151855,-0.6782373,-0.09448214,-0.19624007,1.2944913,-1.2059913,-2.1647544,1.1959519,1.9281899
0.050379924,0.21412304,-0.0031199045,-0.30546868,0.032813877,-0.19535618,0.65406287,1.5269967,-0.672353,-3.500934,0.67075884,2.5493488
0.19289912,0.20145497,-0.045923382,-0.58872557,0.96969676,0.95371526,0.33406758,1.4136304,-0.46538424,0.19610977,0.13525334,0.09277654
0.1827509,0.16083759,0.007187791,-0.15882152,0.6879377,2.3091779,0.17824543,1.3756167,-0.6565043,-0.44617224,-0.017775312,2.5172343
-0.03160111,0.12442206,0.33687896,0.1884002,-0.59044796,2.5628521,0.33921492,-0.623147,0.050281763,-3.8794026,0.057323277,-0.22616291
0.21685466,-0.09964741,0.06262877,-0.16078198,-0.5469538,1.0564079,-0.88755554,0.8963388,-0.25718224,-2.7852035,1.1400449,-1.3855151
0.20786557,-0.12349748,-0.31646684,2.0823913,0.3906721,2.0279245,-1.0633237,1.7257973,0.32571363,-1.7393546,0.05988595,-0.7041658
0.2968202,-0.2162034,-0.13281816,1.6466619,0.46221766,-0.8835038,-0.94926995,1.1124487,0.22988105,-0.49769497,0.3354029,1.206019
0.053033486,0.20525327,0.24734467,0.016737835,-0.21340418,1.7513361,0.64205563,0.08090544,-0.16904235,-0.88691807,-0.14725277,1.9994584
-0.0054974766,0.18399626,0.095181204,-0.35926646,-0.20090021,-1.9401747,0.64341533,0.95537126,-0.986933,-4.9022074,0.4143324,2.3617291
-0.030553464,0.10664405,0.20482314,0.44423687,-0.6066886,1.6742758,-0.2865106,-0.60002023,-0.7189553,-0.68885565,0.9047803,2.1415863
0.20534149,0.17881387,-0.28120655,-1.9740465,0.37364644,-0.4230196,-0.005295515,1.6406723,0.2444098,-4.9807396,1.0975766,2.3910832
0.31144345,0.13021678,-0.07279175,0.5934204,0.45444772,-1.8730037,0.12534189,1.0251738,0.31772828,-2.429752,1.0105867,0.9969481
0.11574705,0.056290258,0.067647375,-0.90458596,-0.15951395,-1.8903371,-1.4153383,0.3373667,-1.3767483,-0.2859769,0.13062349,-0.13177097
-0.06793687,0.09992039,-0.024900591,1.9970657,-1.1232084,2.2806444,0.08411503,0.033565998,-1.5985458,-2.0976644,0.37541014,2.39005
0.089869104,0.1051113,0.027587466,-1.131639,-0.39183065,-0.17293155,-1.1348503,0.42917764,-1.5179887,-0.09032011,-0.078451976,1.3073865
-0.031361938,0.12742497,-0.11307341,-3.1148834,-0.96925414,-0.25169733,0.044736147,-0.13203889,-1.9361862,-3.6032262,0.11694357,0.2105254
0.156426,-0.031549823,-0.022195945,1.6649985,0.31078216,-1.0793961,-0.9044091,1.6737698,-1.2141247,-0.37537384,1.2301025,0.68431985
0.19798227,0.13033617,-0.20256828,2.74814,0.7270962,2.4054413,0.13962221,1.6882774,-0.29192424,-0.44591236,1.0595918,-0.66725004
0.13348371,-0.12817793,0.20169741,-0.30970734,0.015959844,0.33434236,-1.5238438,0.28900748,-0.454108,-3.3500013,0.14670363,-1.0749583
0.16418973,0.103958994,-0.076508835,-1.3164961,0.70865613,-1.4297173,-1.5241725,0.77988994,-2.0417647,-4.665685,0.75474316,-1.5098711
0.1461965,0.046622284,0.11819552,0.45951033,0.44324166,0.6793436,-0.57878107,0.51207244,-1.0860517,-0.108531,1.1961198,1.4356579
-0.08000175,0.098539814,0.027920403,0.42049822,-0.61726487,-1.6457462,0.17592835,0.90722275,-1.6748441,-1.2914073,0.23781273,-0.757602
0.03934149,0.05528706,-0.0017081578,1.4096378,-1.1963692,-2.2189918,-0.9717637,1.0433213,-1.584025,-1.7380078,1.4030368,-1.0313973
0.12359524,0.04702034,0.17912135,-0.37442988,-0.118717335,-1.4522375,-1.0443206,0.03802657,-0.8880992,0.17695045,0.47233933,-0.5277208
-0.06552264,0.06207906,-0.020086922,1.3204304,-0.37108254,-0.84434307,0.19591534,0.5808536,-1.7257559,-1.5821943,0.9528499,-0.3918816
-0.007852685,0.08981913,-0.09889582,2.3183756,-0.804345,-0.30657253,-0.49736917,0.5266689,-1.8946751,-2.1704178,1.2792323,-0.48504162
0.21969882,-0.068485714,-0.12669864,2.6322002,0.5621165,0.011795476,-0.94174457,1.6631485,-0.7002636,0.19047165,1.4612217,2.1119041
0.10021775,0.07437776,0.11940315,-0.7908063,-0.40597853,0.21659057,-1.0603834,0.18463129,-1.1114507,-3.5513177,-0.064062014,-1.2960705
0.15577641,0.2739042,0.040659502,-0.66270685,0.92084914,-0.3191947,0.69263995,0.8937392,-0.26285136,-0.5008173,0.4803177,-0.76655126
0.18145646,-0.15501913,0.28333217,-0.12085902,0.03536897,2.8362465,-1.2817047,-0.08391547,0.1450262,-3.5320578,0.18027133,1.3625859
0.2185728,0.15350184,-0.057663716,2.1049752,1.1379836,-3.0189626,0.2784301,1.2482142,-0.45808554,-0.70854425,1.1600165,-0.4624157
0.16137314,-0.30699998,0.16136196,0.79752594,-0.25546193,-1.7754005,-1.3837099,0.30025375,0.23770714,-1.0881133,0.43973947,0.70053256
-0.024358552,0.10160156,0.03808719,0.77547336,-0.84790826,2.552853,-0.51665103,1.8587345,-1.7548554,-2.11699,1.1307583,-1.4058448
0.19648232,0.3263955,-0.06514551,-1.1932309,0.05067181,-1.8374052,0.5551981,0.9560684,0.26272297,-4.5029087,0.89349025,1.48233
0.22873658,0.022709813,-0.23954874,1.8538779,0.33350098,-2.8923302,-0.22882938,1.6595942,0.050498247,-1.3419509,0.9809999,0.33428633
0.21498583,-0.110938616,-0.19266546,0.027025294,0.93209827,-2.7670648,-1.2786654,1.8100392,-0.036912203,-4.0203648,1.4486299,1.6286215
0.1350266,0.2997885,0.11501899,-0.4441698,0.3855197,0.6084893,0.7488421,0.60047376,-0.043893576,-2.1240106,-0.04190588,1.8853458
-0.018319678,0.11002127,0.08406322,0.27556816,-0.5440972,-1.678506,-0.17910326,-0.32006216,-1.3706367,-0.3525138,1.1960332,-1.5300467
-0.014450233,0.14054652,-0.009142749,-2.0813189,-1.1450744,0.027956098,-0.36494648,-0.3517957,-1.5124977,0.12737417,0.091026366,1.945939
0.010332948,0.099103816,-0.12940507,2.7549367,-0.48834205,0.25912946,-0.17501509,-0.03998387,-1.9263829,-2.5418532,0.81209105,-0.15815425
0.19362508,0.18831873,-0.07936391,-0.7562983,0.7813135,1.8994693,0.19581711,1.5963153,-0.45049512,-4.3062153,0.38017315,-0.81418526
0.3655132,-0.10715741,-0.04828209,2.351723,0.019272663,-0.55374616,-0.5149677,0.5556767,0.5194156,-0.65427876,1.5831635,1.8896338
0.05838034,0.28568482,0.24079035,-0.32481632,-0.13414699,2.4186687,0.8485724,0.08872813,0.15362906,-4.456794,0.3255331,-0.27277982
0.29240015,-0.030559607,0.11663436,0.20786396,0.33558035,0.2402056,-0.54585636,0.6785747,-0.21770287,-0.06477451,-0.06837723,0.88513815
0.10396121,0.10156386,0.016121445,-1.6392603,-0.26264536,-2.7325852,-1.0865169,0.72043574,-1.3904109,-3.407226,0.9851355,2.1617146
0.15019023,-0.09920238,-0.18562739,1.2031275,-0.3566778,-2.109076,-1.0309453,1.956407,-0.25448346,-2.0701463,1.021992,1.5576254
0.23197977,-0.07170103,0.16494857,0.08245564,0.00047811333,-3.089473,-0.8256133,0.51230824,-0.3302145,-2.710368,0.13317099,0.45158947
0.15749753,-0.14187804,-0.1377857,1.5338413,0.22357081,-0.63755655,-1.377688,2.0475569,-0.6382377,0.23989964,0.12908283,0.68816745
0.08239139,0.045940556,0.15405194,1.5564562,-0.14574985,-0.8092419,-0.2089665,-0.0102594495,-0.6843227,-1.5131361,1.6003222,0.07035518
-0.03302474,0.14202209,0.054643758,-0.2948211,-0.42939728,1.1795793,0.07005477,1.8997701,-1.5207694,-3.5424874,0.848069,-1.6290048
0.24267763,-0.07698719,0.28323686,-1.0707257,0.17166029,0.0186392,-1.0067129,-0.267679,0.50173426,-3.8339403,1.2542641,-1.6278687
-0.057900943,0.12808456,0.052905664,-0.35722303,-1.4507337,-2.0936964,0.0046117306,0.013887525,-1.304487,-0.27186728,-0.17389064,-1.4713902
0.14418302,-0.06673522,0.04473075,0.49146795,0.099104546,-2.2436469,-1.3341161,1.5617582,-1.1903582,-0.10787058,0.12972623,-0.7741257
-0.06703797,0.11476329,0.32290125,0.33444265,-0.64460295,3.0514941,0.58743775,-0.5811339,-0.017570496,-3.9578998,0.15798539,0.06235397
0.10052817,0.23975083,-0.19261034,-1.5516027,0.84301883,-0.9175413,0.6481186,1.7774636,-0.1946367,-1.26882,-0.08334011,-1.2051564
-0.11043453,0.043735743,0.035359636,0.6839657,-0.24808368,2.341773,0.7753843,0.7044786,-1.6097937,-0.8833971,0.3507321,2.2349467
-0.11382282,0.067916155,0.05539528,1.2631961,-0.86461353,-2.4320555,0.6081022,0.068529606,-1.3172154,-2.6070092,0.14362797,-1.1395049
0.053186078,0.10674161,0.018530896,0.6800875,0.94813025,0.78498757,-0.28027833,1.3653079,-1.7089008,-0.12918282,1.4406309,1.5195042
0.000751283,0.13673857,0.0760815,-0.9914535,-1.0846605,-0.4857262,-0.5181763,-0.24594456,-1.234999,-0.5280671,0.19628102,1.1064578
0.17325841,-0.009018425,-0.23669265,1.560764,-0.39810997,-0.92661047,-0.41691673,1.7635473,0.03329301,-1.5840213,1.5545592,2.4451098
-0.0023138374,0.14013295,-0.040952537,-2.038864,-1.0801058,1.50282,-0.48097372,0.23888344,-1.6692047,-3.0405138,0.35651928,0.24902308
0.1074893,0.05766935,-0.0146157965,-2.2081602,-0.3443511,-0.4516222,-1.2504408,0.8941307,-1.3457336,-3.0584383,1.7155561,-1.821241
0.21511967,-0.06248562,0.3110314,0.6668706,-0.15781038,-0.3633376,-0.6920805,-0.2920042,0.30052662,-1.1400733,0.6789066,1.416792
0.17561837,-0.14861609,0.13093008,-0.102250375,0.54744315,2.7074165,-1.4644597,0.6698208,-0.5861188,-4.5205507,0.5664748,2.356637
0.20200463,0.31085375,-0.033941444,-0.48884222,-0.2210693,-2.587368,0.5558599,0.8244463,0.4828968,-3.6950197,1.2891772,0.20631325
0.15499964,0.18636753,0.14089799,-1.0489374,-0.7450535,1.6709358,0.10001564,0.42604125,-0.25601852,-3.9544663,1.3101029,-0.40407145
0.28387725,0.15613683,-0.08776766,-0.09791941,1.2121065,-1.6126649,0.12242234,1.2871735,-0.10945201,-1.1612236,0.08763319,-0.58741105
0.24090822,0.14984173,-0.1299335,3.1264641,0.57627857,3.0486057,0.11760414,1.2856678,-0.2968911,-0.07661152,1.5808723,-0.0031741858
0.114897236,0.096546136,0.074675836,-0.23180556,0.08503082,1.166869,-0.5166795,1.1996826,-1.2543647,-4.76969,0.24378282,0.16683567
0.07921525,0.104960084,0.06019658,-0.09681677,-0.043342087,2.9433146,-0.9088407,1.5270671,-1.6684556,-2.5604477,-0.045889348,0.13329947
0.067343816,0.11069013,-0.012682527,-2.284885,-0.60206693,2.7082531,-0.99063057,-0.17878261,-1.4247298,-2.8889112,0.5575264,1.2923814
0.01088699,0.14780423,0.085616335,-0.02849735,0.17520338,2.6782951,0.5391747,1.079262,-1.144301,-0.27986813,0.23909664,2.4143348
0.020833552,0.1695077,0.24753505,0.043148454,-0.41308814,-3.1016808,0.5268289,-0.005324185,-0.34237444,-4.517319,0.17177731,0.909521
0.106671296,0.18070424,0.3621874,0.13924268,0.17873377,-2.2640643,0.47143638,-0.4981504,0.50002813,-4.275504,-0.22531228,1.5526928
0.2772939,0.093100995,0.0011183545,0.8871665,0.22591613,-1.4165245,0.05871582,0.97243357,-0.055868506,-2.029896,1.0276215,1.0996
0.18326534,0.08681445,-0.30313414,3.0239375,1.0911843,-2.7040677,-0.31783044,2.025507,0.050770044,-4.644567,0.22829357,-1.4551312
-0.14057945,0.11659896,0.07973857,-0.38705727,-0.3391296,0.58326024,0.30350244,2.0660138,-1.9747025,-4.129003,0.55405736,-1.8288714
0.27278954,-0.07115427,-0.28580225,2.1702397,0.776244,-0.46645862,-0.72118884,1.5779294,0.31605768,-2.9240184,-0.09341414,-1.8162742
0.16766308,0.08518617,-0.19683105,1.0449567,0.4552578,1.2845824,0.063330054,1.8359374,-0.08140433,-2.1405041,1.2653434,-1.7236717
-0.13913456,0.028104588,-0.031705454,1.099827,-0.58966064,2.2934105,0.7364875,0.5933231,-1.8362322,-1.2197516,0.18765694,2.2850485
0.2711803,-0.21184792,0.19340536,1.3467264,0.1475599,-0.8087219,-0.95006585,0.05303347,0.34718394,-0.5526085,0.99870664,0.93978775
0.14476039,0.1396554,0.27482647,-0.14165352,0.9501793,-0.8900316,0.09123886,-0.27964,-0.14185476,0.0077815056,1.3788009,-1.0596731
0.031487547,0.16790578,0.19464476,0.08923556,-0.20416209,-0.5013088,0.54438484,0.29691523,-0.59137106,-2.7516153,-0.07991642,1.7012581
0.2077716,-0.13396391,0.06951505,0.35516855,0.39881244,2.514914,-1.176408,1.0408363,-0.6372489,-5.0014396,0.24810427,2.432835
0.0073057003,0.15888536,0.20031716,-2.4889295,-0.62850106,0.29261398,0.04803455,-0.44330087,-0.22970319,-3.69425,1.7225482,-0.18127382
-0.026185345,0.15915576,-0.06729372,-2.432553,-0.6383338,-0.8668503,0.039108157,-0.4484876,-1.6946615,-4.359548,0.62072384,-0.16031516
0.24563189,0.073173046,-0.07085778,0.40718925,0.42039615,-2.9292915,-0.13779438,1.488012,-0.27422678,-2.692519,0.7695072,0.18322527
0.06979257,-0.008323982,0.017650314,0.5657404,-1.0987842,2.4941487,-1.3792443,1.9100667,-1.4418277,-1.6908016,1.187499,-0.7601595
0.043272153,0.2426467,-0.3142445,-1.8773133,0.8118652,-1.7137939,0.91105926,1.6722897,0.4452951,-2.6547174,0.37461853,-0.789592
0.105527,0.06452644,0.15534396,-1.5959641,-0.31736192,-2.1752203,-1.5223362,-0.38338044,-0.7396562,-2.5971587,0.53864753,2.0591187
0.16757268,0.014360793,0.27682334,-0.89799404,-0.7336329,2.955743,-0.7421909,-0.22833857,0.12973142,-3.1123505,0.9910044,0.89158714
0.0067356396,0.20034793,-0.06392886,-1.0227005,-0.37741444,2.2612875,0.41139853,2.0733824,-0.8862337,-4.2310314,1.407753,-0.7520014
0.01170361,0.09417943,-0.0032248497,1.5132691,-0.7482354,-2.378955,-0.9628444,1.7077838,-1.9496045,-1.3531787,1.5806453,-1.0052183
0.034560464,0.099107906,0.055013966,0.8652918,-0.6746099,-0.031041777,-1.1313033,2.0480752,-2.0039613,-1.274615,1.0264056,2.077601
-0.045229528,0.10453041,-0.052762754,0.72296596,-1.0503597,0.7466222,0.0021430254,0.05708444,-1.9135764,-0.49744558,0.75535864,0.46883
0.13857268,0.1374936,-0.23447469,-3.1332889,0.4969889,2.4712543,0.101101756,1.9842669,-0.41109872,-0.046510696,1.0733688,-0.55526364
0.024128906,0.104179926,0.11711098,0.5455602,-0.91994864,-1.5086747,-0.017082214,0.43527532,-0.97814417,-2.4657073,0.55175596,0.5937449
0.0755535,0.115879744,0.011153633,-1.8366235,-0.55047953,2.8063655,-1.1413393,-0.5249739,-1.3924916,-0.84809875,0.17853016,-0.95528626
0.22588976,-0.018089559,-0.24705482,1.1577641,0.10224245,2.4393897,-0.41795456,1.6042243,0.35330558,-2.1734865,1.2887764,-0.15915167
0.31410643,-0.07695249,0.13632488,0.8419371,0.09543645,0.10719996,-0.5136132,0.42615724,0.11512256,-1.5005412,0.64524984,2.349834
0.24396963,0.050641187,-0.053050984,-0.026137115,-0.23405196,2.6780324,-0.309103,1.3427382,-0.15427148,-3.094706,1.4195869,-0.16382945
0.12237581,-0.16202788,0.2459989,0.25471732,-0.38043624,-1.9968076,-1.4393114,0.05344212,-0.20191956,-0.9035511,0.53248394,0.26528442
0.051972408,0.20816267,0.18497543,0.05571624,-0.026862305,-2.748627,0.71086276,0.41337776,-0.41031265,-2.7500896,0.06466988,-0.7101109
0.049090598,0.12613508,0.070829764,0.5355731,-0.77776057,-0.051314257,0.21831012,0.99971473,-0.89242125,-2.9003208,1.0152512,2.420658
0.0284727,0.07113235,-0.03559565,2.3897264,-0.7415681,1.5496057,-0.60852563,0.17224008,-1.5390207,-2.1996224,1.4185777,1.2723948
0.061919205,0.012202996,-0.05238569,-2.9106872,-1.4622232,-2.320707,-1.4468555,0.0028492808,-1.7584709,-1.6485102,1.4056692,1.9889554
0.2454454,0.053580694,0.0016730358,-1.6943606,0.758694,-2.5183592,-0.63122165,1.1249871,-0.7313957,-4.8678226,1.6034031,1.7185537
0.20115992,-0.12044012,-0.21075565,0.44181055,1.2822195,-0.17042121,-1.4478195,1.927462,-0.13643944,-4.3993545,1.393465,-1.5639237
0.02580557,0.09173389,0.078390285,1.1306516,0.5505932,-2.1051369,0.52595913,0.6513076,-1.1118433,-1.338407,1.2700813,-1.2586164
0.2406057,0.28631347,0.06177001,-2.3965268,0.47359538,-2.3457847,0.46952307,0.34152055,0.26587653,0.342124,1.7205415,1.6514767
0.035750706,0.12843299,0.024747051,-0.9947441,-0.8539844,-0.2820779,-0.72739154,0.22900188,-1.5218909,-3.9304452,-0.12685801,-1.4888713
0.10108833,0.030819692,0.14012112,1.6138984,-0.32650897,1.5840673,-0.3304628,0.11858648,-0.6890862,-1.5897634,1.6071343,2.5701122
0.06118195,0.13832189,0.3044258,0.07432978,-0.3847294,0.5266078,0.17786658,-0.30467972,-0.08727157,-1.2401097,0.0014204681,1.5741004
-0.028508293,0.10748593,0.061291818,0.22953491,0.039504647,-0.87274915,0.16876948,1.53154,-1.5816644,-1.3594975,0.23824716,0.31666982
-0.10608091,0.033964276,-0.13572681,2.510604,0.030516371,0.32779202,0.7347342,0.58764696,-1.9805759,-2.6523757,1.3448865,1.0403262
0.049687177,0.081486255,0.00954642,1.076368,-0.5209444,-0.63095284,-1.1717677,1.6056758,-1.9769698,-0.87970924,1.3710194,0.89018667
0.14293778,-0.15266164,0.052435357,0.39299843,0.1571549,1.6408969,-1.5133938,1.2707192,-0.84884524,-4.5583453,0.13658762,1.431919
0.18505041,-0.07799493,0.27565956,0.46435133,-0.4781749,2.9183555,-0.84577864,-0.11302072,0.05173731,-1.503336,0.6554113,-1.1516299
0.10666281,0.049521357,0.031481728,-0.74469864,-0.32105488,0.6860332,-1.3435389,2.0867639,-1.414639,-2.9772782,1.4590089,-1.0719559
0.0036266465,0.07283425,0.14297804,1.5338151,0.11521404,-0.11082284,0.42304993,-0.020370603,-0.7756351,-1.7631919,1.3263636,0.6777197
-0.10201039,0.11686892,0.064365245,-0.008333526,-0.50891596,1.7284905,0.95228684,1.2747582,-1.2636731,-4.0926714,0.5153437,-1.4145188
0.17264754,-0.035458356,0.027853664,0.35444784,0.13419218,1.5736836,-0.94810003,1.5788518,-0.9775673,-2.7629108,0.25128317,-0.9464852
0.044769872,0.08026009,-0.03371196,0.4046654,-1.2617679,-1.5110159,-0.4588946,-0.63749146,-1.9062915,-0.57351923,1.3492236,-1.6098435
0.20845039,0.1269589,0.13915831,-0.53588307,-0.87428904,2.701988,-0.07609248,0.45019817,-0.083949804,-3.4210665,1.3364604,0.10046661
0.017410144,0.15158357,0.12027137,0.16929257,-0.8692473,-0.9742917,0.3575213,0.6172589,-0.81918824,-3.406155,0.6850452,2.0151782
0.08710871,-0.021037288,-0.07901533,2.7129228,-0.6694767,-2.8040059,-1.4405794,-0.3725916,-1.7174886,-2.4147627,1.4269893,1.9390508
0.34554368,0.062257007,-0.11332968,-0.8808291,0.6771936,-3.0743346,-0.34258938,1.1616379,0.24200344,-4.2121305,1.0867116,0.4605068
0.13493416,0.051201124,0.27911967,-1.0920523,-0.06556825,0.79779935,-1.1581694,-0.4471442,-0.16251886,-3.7502484,0.54240894,-0.42944086
0.047323093,0.17937174,0.085080475,-1.392086,0.007028265,-0.41629526,-0.28926635,-0.027000606,-1.1623733,-4.778947,1.2445991,-0.7600478
0.28676578,-0.24548736,-0.067103714,1.2397822,0.14879274,-2.373429,-0.97586346,0.9336904,0.2938714,-1.605741,0.4133101,0.6061107
0.15170644,0.040248916,0.16017166,-0.7538991,0.17226017,2.4660707,-1.1163536,0.18257618,-0.8742813,-4.8217807,0.46983033,2.222127
-0.005841214,0.08854313,-0.085915536,1.9102126,-1.022903,1.8412436,-0.14290333,-0.1916287,-1.9330711,-1.1663332,0.72225296,0.89488065
0.12682153,0.33521536,-0.060698595,-0.9707412,0.35044214,1.5994229,0.7946626,1.0930681,0.07953644,-4.16626,0.35622317,-1.6902008
0.21258909,0.07979236,-0.04336333,-0.3342382,0.5331759,1.763026,-0.38748074,1.7189606,-0.6573479,-3.8467336,0.77523714,-0.63923645
0.12417505,-0.20813894,0.056991987,-0.05872036,-0.39456117,-3.0672297,-1.46495,0.9883925,-0.35248542,-2.598206,0.8157516,1.1385814
0.10249156,0.09862013,0.004829255,-1.8252989,-0.26811236,2.0420108,-1.3137507,-0.41123474,-1.4252737,-0.7478647,0.027887017,-1.8586475
0.18096253,-0.034407616,0.15029457,-0.08100428,-0.055733986,0.5575733,-0.93804497,0.59838915,-0.69221413,-0.5731082,-0.0052663684,2.0711198
0.22793427,0.19843987,-0.14213671,1.3049119,0.6872165,-3.0070026,0.5012263,1.1570115,0.29952168,-1.7555635,1.3491464,-0.10916364
0.06081269,0.15274143,0.13918592,1.746208,-0.11582421,-0.99368644,0.6736442,0.26370627,-0.26853597,-2.3626447,1.7415845,0.5531856
0.13974667,-0.014073087,0.040245462,0.32671735,0.08374098,-1.8341895,-1.1529648,1.82681,-1.2721071,0.23805189,-0.22811016,-0.8905584
0.12820145,-0.0031336509,0.13860264,-0.6673326,-0.10102328,2.5012927,-1.3989351,0.35562313,-0.9841039,-3.271996,0.04566133,0.92602646
0.034784194,0.20868649,0.10477704,-0.9996249,-0.6600434,1.6484458,0.39423,0.65371656,-0.7594193,-4.4108796,1.0956335,-0.18604505
-0.116884105,0.11888331,0.044889137,-0.8346225,-0.23591001,1.9316525,0.9014605,2.0877657,-1.5657759,-4.773514,0.6835287,-0.56469226
0.2757285,0.11373004,-0.11796986,1.4670945,1.1048001,-1.7725707,0.07455957,1.3666235,-0.15092432,-1.1095562,0.6089131,0.7037989
0.059141994,0.11890898,-0.062121145,-2.039365,-0.7634975,1.0816753,-1.1670241,0.7710699,-1.7877373,-2.6601121,0.97234195,-0.5821451
0.17763607,0.029563805,0.16575427,-2.637424,0.97221506,1.0005238,-1.550486,-0.55544126,-0.5183985,-4.12347,1.5815306,-0.5543258
0.12957808,-0.08648251,0.26398614,-0.58775985,-0.3285902,-3.0935087,-1.3853092,-0.092354715,-0.15239751,-2.6012127,0.4426906,0.9641117
0.17227861,-0.1310706,-0.07749675,1.1548415,0.23936692,-0.4162881,-1.247788,1.875486,-0.7320919,-1.1847913,0.061835855,2.209807
0.19439219,0.008738384,-0.2748733,1.7101058,0.380233,-2.5609977,-0.37771833,1.8518432,0.11687493,-1.7717435,0.8221722,1.0578696
0.1450459,-0.113256894,0.1778715,0.67609286,-0.5610346,-2.5858235,-1.1141266,0.31439638,-0.48823404,-1.111738,0.9162157,-0.637401
0.1046464,0.0697232,0.05030094,1.7661341,-0.67766017,-2.9602313,-0.050551414,0.78322065,-0.7723826,-2.2059395,1.7290251,-1.5040315
0.25852802,0.046466,-0.07427656,-1.543067,0.93068814,1.7596933,-0.6067525,1.5341839,-0.6036973,-4.8969746,1.3023362,-0.6970588
0.17213614,0.0013432344,-0.34152952,-3.0753095,0.053011816,-1.8027141,-0.8543326,1.9250659,0.13036013,0.09356737,1.1030684,0.44338763
0.10065371,0.24315092,0.1172978,-0.26264194,0.27850112,-1.7603744,0.67531383,0.739241,-0.4169438,-2.7611046,-0.061910152,0.28463995
0.038747143,0.11186189,0.2708372,0.315554,-0.51302516,0.87566364,0.049687743,-0.26821858,-0.3222754,-4.5399594,-0.2520375,-1.0760472
0.2262164,0.08611378,0.33105022,-0.2162714,0.09117249,2.3243148,-0.2529409,-0.3305785,0.38452888,-4.63492,0.23246187,0.9128059
0.17997552,0.23914452,0.23194602,0.18130426,0.35076165,-2.2484124,0.5686661,0.09467858,0.27237177,-1.9908001,0.36710727,-0.732031
0.38225242,-0.043981083,0.17871958,-0.012520671,0.7712043,2.9328072,-0.50773203,0.16525316,0.48414063,-4.850059,0.3576095,1.8809417
0.13692999,-0.05377588,0.206938,-0.56633925,-0.19601718,2.6756346,-1.3400595,0.157435,-0.53180385,-2.8308372,0.22844383,0.606984
0.022670861,0.06691302,0.20014998,1.5910934,0.30720153,-1.2862179,0.15345752,-0.40797895,-0.48814583,-1.4894302,1.7028756,-0.60151446
0.14753693,0.18083335,0.15974484,0.3771019,-1.035698,2.469993,0.29601705,0.32815802,-0.0039589405,-3.2140427,1.4001229,-1.1292716
0.075822584,0.27427027,0.09190382,-0.27527672,0.4506049,0.13874875,0.89008605,0.79899204,-0.3034997,-1.5897028,0.18555269,0.82192504
0.18432006,-0.00018182187,0.020049293,0.06900261,1.007647,0.44157013,-1.2700143,1.8377367,-1.339079,-4.7075934,0.9218485,-0.077364445
0.17349187,0.29385743,-0.021078441,-0.7208562,0.7343099,1.7649432,0.6671134,1.0500371,-0.07020509,-1.6001878,0.029708713,2.4259558
-0.058222275,0.19725484,-0.30335087,-1.282428,-0.43664753,-2.2077417,0.74927294,1.9757766,0.34647036,-4.3214574,1.5406165,0.0125181675
-0.0128881475,0.13380018,0.037938867,0.24128182,0.23870698,-2.1605258,-0.40656888,1.5304276,-1.9641939,-0.17508078,0.757937,-1.5779374
0.04843038,0.08174731,0.09372464,0.6549742,-1.0793163,-0.06862709,-0.2860459,0.5515199,-1.0330813,-2.3365932,0.8149741,1.9879907
-0.054572146,0.12419289,0.037288416,0.028746532,-0.83614963,2.456685,-0.0021543503,0.97934365,-1.5778942,0.08837366,-0.23867232,2.3509135
0.14504191,0.0829882,0.31404558,-0.19147329,-0.879999,1.5645803,-0.27659285,-0.36416024,0.28559422,-3.0125508,0.81705755,-1.3435585
0.19763407,0.111388415,0.014695466,-0.5362907,0.52139115,1.7300118,-0.27642858,1.4520227,-0.8245518,-4.455627,0.62024224,-0.16278434
0.11881341,0.018739846,0.32479924,-0.84394574,-0.15763108,0.09359057,-1.4725019,-0.6374623,0.028785944,0.3360076,-0.2569615,1.2731456
0.14285085,0.08194363,0.07769203,-2.0801158,0.29942265,-0.36490962,-1.5213718,-0.48123977,-0.98564684,-3.6911485,0.6983558,-1.4714979
0.28944445,-0.23732443,-0.1325471,1.3991945,0.0806677,-1.8471187,-0.93669647,1.0099432,0.45803094,-1.7303717,0.5510581,1.3627211
0.028639693,0.15418449,0.11553536,-0.420689,0.36445817,2.0247726,0.22326076,0.34159607,-1.1834865,0.30726242,1.3224967,1.5734724
0.31558126,0.2110696,0.041669108,2.2191436,1.1548382,-1.7460814,0.36176932,0.45796192,0.34371614,-0.73522854,1.1992018,0.95083773
0.15756442,-0.026371084,0.13464807,-0.09494785,-0.46117595,2.4824145,-0.8970434,0.6584312,-0.71789134,-2.3487098,0.42663664,-0.54193115
-0.007763896,0.19501483,0.11125299,-1.4848574,-0.08509896,1.6028342,-0.2996148,-0.6532021,-0.9657332,-4.8239355,1.1921537,1.6817473
0.122741275,0.049991623,0.07616045,0.32291007,0.17879435,-0.64984536,-1.3172203,2.0765738,-1.744279,-4.9578223,0.09686786,-0.64459205
0.070973024,0.12827313,-0.14836513,-2.9157014,0.32163668,2.7654262,-0.36697006,0.15076649,-1.9777515,-3.4587233,1.5481918,2.4799867
0.28405395,-0.15838158,-0.13831352,1.290059,0.6581927,-2.9509974,-0.907416,1.3730923,0.0032789707,-3.6230917,0.029983252,2.071239
0.1425004,0.06755219,0.035478275,0.26209438,0.47313005,0.87902266,-0.48078012,1.7072543,-1.208174,0.16759157,0.037432402,1.2541405
0.10039212,0.06999684,0.25777268,0.4794577,-1.1892551,-3.1326518,-0.3080243,-0.22881913,-0.08690727,-2.567817,0.961265,-0.6812383
0.09226741,0.1376989,-0.014455071,0.98245806,1.0538435,0.63282657,0.5052372,1.5601739,-0.9523423,-1.1988778,0.9932706,2.2643356
0.15105554,-0.13183081,-0.03264399,0.92041487,0.12882785,0.94345003,-1.3855298,1.8376175,-0.89142895,-2.3691452,0.027392715,-1.5113957
0.10969096,-0.36629626,-0.051572137,1.0171933,-0.4877373,1.4087281,-1.5271018,0.850371,0.39923644,-1.9679778,0.57436013,-1.2960373
0.17946476,-0.11883926,-0.17542008,1.3813696,0.32511523,2.529347,-1.1884692,2.0214305,-0.39291227,-2.9283116,0.24264067,0.68093884
0.024651526,0.13003609,0.06927637,-0.24110341,-0.38863546,0.8736264,-0.31607163,0.6683178,-1.4535162,0.27097368,0.35181147,1.0031849
0.16431607,0.15244487,0.18354103,0.94527537,-1.049922,-0.29003164,0.22194195,0.15531373,0.14444566,-2.9375927,1.5684824,1.9030126
0.25943556,0.05235531,-0.1531717,-3.0442436,0.68174857,-2.1545863,-0.37915242,1.5286552,-0.42701733,0.3117442,1.422432,0.6950849
-0.05558368,0.08585447,-0.007455105,0.9036351,-0.67128015,2.3709168,0.22130954,-0.20297575,-1.7289279,-0.5750122,1.0206404,1.8763446
0.17734528,-0.036788385,0.11081597,0.10200173,0.11058252,2.3520641,-0.98708194,0.86726654,-0.88863754,-2.9267108,-0.171112,-0.011287451
0.13141946,0.32388255,-0.046080086,-0.67079407,0.1749247,-1.9447895,0.75386775,1.0712942,0.11625171,-3.7107873,0.65228254,0.74534595
0.146823,-0.055590726,0.00023146125,1.5532585,0.3338012,-1.437469,-1.4309171,1.6118125,-1.4667823,0.19644785,1.4119415,0.0993644
0.19440807,0.024581835,0.018452244,0.8806088,0.72237015,0.40017927,-0.48586285,1.4177824,-1.0002412,-0.33234644,0.6708971,1.6224619
-0.10799773,0.11258428,0.12540272,0.21269566,-1.0803407,2.2002978,0.67228186,0.08243269,-1.025791,-4.5674844,0.49673557,-0.056125164
0.12461446,0.027855923,0.033451628,-1.6076683,-0.94503784,-2.7257166,-0.8439973,0.97581065,-0.8874173,-2.9217842,1.6786706,2.0358167
0.03184895,0.08420323,0.012864191,0.5358855,-0.29972038,-0.41850162,-0.3336934,-0.15489537,-1.7318614,-0.5984254,1.7132549,-0.30814195
0.12854469,-0.07764338,0.1266655,0.49197137,-0.47326624,2.7226195,-1.1724901,0.621434,-0.8675566,-0.97482395,0.7819602,-1.6161902
0.07293183,0.16231169,0.021484595,0.560436,1.2602776,-1.5188316,0.68832266,1.231644,-0.93579555,-0.9436569,1.1242137,-0.68920135
0.20115125,-0.007898759,-0.16752678,2.1662831,0.76321363,3.0275483,-0.71076226,2.0900517,-0.6515124,-0.00460577,0.5495975,-1.2418447
0.025755875,0.09567833,0.05396046,1.9513803,-1.0324353,-2.3565843,0.0062851906,0.6283541,-1.0116775,-2.6458275,1.4247003,-1.2988986
0.1975668,-0.2498658,-0.27327076,2.7214303,0.0904489,-0.45850584,-1.3018639,1.245529,0.47740006,-0.024953365,0.9900618,1.3710743
0.25626326,0.003519673,-0.13192195,-0.30632567,0.45578423,2.1498263,-0.64010936,1.6268989,-0.098941445,-3.657166,1.340992,-0.3512864
-0.059227988,0.17525823,0.3626122,-0.18531373,-0.5964825,2.220921,0.8643724,-0.6052455,0.3628533,-4.624769,0.5565759,-0.17524242
0.08865997,0.029310085,-0.11715366,2.7432213,-0.62593806,2.2209983,-0.815245,-0.41472483,-1.9584911,-2.122132,0.85364574,0.800547
0.3027387,-0.12687543,-0.09802069,0.8642287,0.6533424,1.3456943,-0.7902984,1.2919103,-0.005491495,-0.027304173,-0.25734648,2.4684691
0.061459977,0.11024597,0.12858567,-0.6725149,-0.6170497,-2.5087924,-0.8977147,-0.21388909,-1.0952098,-0.31239033,0.45731646,-1.1705722
0.15954153,-0.0969932,0.32571357,0.06792947,-0.16240522,1.19385,-1.2049868,-0.32522973,0.13992977,-3.8963165,-0.25823572,-0.009948015
-0.122632444,0.040126663,0.097522855,1.3768904,-0.60598737,-1.648502,0.6807066,-0.32703286,-1.0955634,-1.5099812,0.2721699,-1.5555547
0.102866575,0.27975667,0.053537454,-0.39215082,-0.6410934,1.5317185,0.6373149,0.82664824,-0.091330886,-3.8392887,1.2142243,-1.7011715
0.0967686,0.059214108,0.04514796,0.81991166,0.2915622,-1.5581437,-0.37983048,1.3843166,-1.361166,-0.8161311,0.84262615,-0.22715747
0.23015897,-0.026406731,0.33842146,0.78530055,0.9899816,-2.0216708,-0.7968809,-0.6011527,0.42923188,0.3428235,1.3337002,-1.0848539
-0.0072887577,0.21328847,-0.03128995,-0.8858508,-0.8030213,-2.5085268,0.60573685,1.6214012,-0.7968409,-4.1675444,1.4817963,0.8984946
-0.023886073,0.14198051,0.0016766079,-0.064361304,-1.0341587,1.3995607,0.2882086,1.8033849,-1.1573619,-3.4220161,1.653938,-1.862138
0.09968153,0.036505274,0.25237826,0.14653488,-0.27949893,-1.7259305,-1.1329318,-0.4471154,-0.5471809,-0.36783934,1.0358088,-0.417951
0.0789446,0.02487224,0.035366856,-3.053525,-1.1778871,-0.23586522,-0.95400286,0.5878906,-1.109132,-2.3158453,1.6218033,-0.73826253
0.018426515,0.1310271,0.06327926,-0.094224826,0.071192905,-0.6670614,-0.19430745,1.6030687,-1.583609,-1.8674111,-0.11087476,1.3902663
0.3195888,-0.19830751,-0.113777876,1.5758011,0.3750582,2.4601095,-0.83227634,1.0117941,0.3045833,-0.9774709,0.44315344,-1.3191298
0.16986933,0.09752616,-0.08890692,0.4239829,0.90317845,2.4403503,-0.102669954,2.0127368,-0.6971282,-2.6738617,0.39350885,-0.7363461
0.23194359,-0.066262476,0.015957557,0.6855206,0.5172013,1.5686815,-0.82086945,1.3284206,-0.71311593,-3.2029638,-0.21776289,-0.49802637
0.025748756,0.13103838,0.021871742,-0.86951345,-0.9752393,-1.706103,-0.37808275,1.5225619,-1.3621247,-3.2365649,1.3601334,2.3799167
0.034040354,0.0944055,-0.0055851378,0.47479558,0.048979767,1.4730221,-0.41484642,0.4925388,-1.8560293,-0.4098606,1.6119134,1.9344887
