x,y,z,R,P,Y,t1,t2,t3,t4,t5,t6
0.25732347,0.057370704,0.23650023,0.11593775,0.339608,0.011047483,-0.27208522,0.12899289,-0.047380745,-0.05692023,0.27661625,0.360603
0.19663562,0.1437922,0.24826843,0.0021591266,0.08625976,-0.39931542,0.09375632,0.090397686,-0.04450971,-0.25116163,0.041081935,-0.24158248
0.13347141,0.15153663,0.26041728,0.027513297,-0.121843025,-0.4451734,0.18070439,0.012765586,-0.15560985,-0.27116555,0.018733166,-0.35674936
0.19738388,0.1454017,0.24883142,0.029438464,0.22657382,-0.106396236,0.11418614,0.080480725,-0.06051284,-0.26360703,0.20910916,0.046920776
0.18810819,0.117711306,0.1900931,0.015412393,0.10370642,-0.029946305,-0.037459195,0.3838071,-0.40130332,-0.093963146,0.12224765,0.102175534
0.19236729,0.083903514,0.2787639,0.17935261,0.020068182,-1.028352,-0.16544402,-0.07458682,-0.03379944,-0.8381712,0.23433071,-0.03238541
0.26323473,0.07404724,0.23583853,0.043977167,0.19995093,-0.21413444,-0.20154741,0.13639957,0.044887602,-0.10464573,0.023493648,0.09669408
0.124331616,0.10984356,0.2638232,-0.00034382107,-0.21342486,-0.0976236,-0.11897686,-0.070676655,-0.2890304,-0.16704178,0.14976117,0.1839563
0.109982714,0.10686773,0.24668889,-0.054472663,-0.3950982,-0.5717142,-0.1741471,-0.025507033,-0.38703004,-0.8790545,0.02233509,0.48879912
0.1277722,0.10334471,0.26778436,0.034773923,-0.18157646,-0.41747755,-0.15214421,-0.09220727,-0.2770014,-0.30677617,0.20396551,0.026941717
0.27041152,0.114369616,0.21025133,0.1452075,0.5294463,-0.16426782,-0.013050973,0.21673378,0.011487931,-0.37523764,0.3286306,0.27762833
0.09886612,0.13148665,0.24876365,0.05285088,-0.085239686,0.24418984,0.08577716,-0.010509901,-0.39679614,-0.14364898,0.32084805,0.2905459
0.19228204,0.088804856,0.27154955,0.1993418,0.08210008,-0.4053809,-0.1338742,-0.0421499,-0.07275286,-0.7006992,0.2904483,0.4266297
0.16039552,0.12111525,0.25141385,0.05116473,-0.094412155,-0.310155,-0.0063358545,0.057257593,-0.20275006,-0.7885203,0.07268503,0.4785317
0.25740543,0.09243794,0.20077634,0.12365981,0.42602777,-0.39254823,-0.11482671,0.29243037,-0.13696009,-0.22677118,0.28972095,-0.019003928
0.26290753,0.0896731,0.18012035,0.07812985,0.44183695,-0.46479654,-0.1366891,0.39272025,-0.19088449,-0.047674775,0.24653518,-0.2616665
0.29462042,0.041421574,0.20737055,0.22597717,0.46985176,-0.45678717,-0.27968758,0.23140585,0.019604385,-0.2531458,0.27094206,0.1391109
0.25665924,0.123215124,0.23975362,-0.016562145,0.4904604,-0.3084511,-0.0137785375,0.09037295,0.060205996,0.06324315,0.34035066,-0.36372057
0.19393943,0.06720145,0.28189975,0.021706574,-0.09422427,-1.3952862,-0.30475625,-0.08831172,-0.03225532,-0.92182446,0.061346002,-0.1726765
0.22929783,0.108549275,0.21445121,0.10474939,0.21930979,-0.43430927,-0.048780322,0.2493501,-0.14798787,-0.6390198,0.15372774,0.26970825
0.19618629,0.13162228,0.20184766,0.08838226,0.14668037,-0.5210998,0.061604053,0.32076412,-0.27128428,-0.8096788,0.13318773,0.23586532
0.18130863,0.10556281,0.20534325,-0.0040695197,0.049823478,0.042365875,-0.11711928,0.29584584,-0.40381867,0.06296384,0.15728812,0.09695357
0.110513054,0.14685237,0.2513933,0.008685649,-0.09499398,0.2783209,0.17114916,0.025110856,-0.302264,0.042140722,0.18222745,0.06567836
0.21313909,0.13112567,0.239445,0.07246771,0.14139076,-0.9749503,0.049537927,0.13030183,-0.046279162,-0.9700033,0.095396236,-0.04603696
0.20302063,0.09726293,0.21088314,0.11757437,0.14247361,-0.20281108,-0.11054455,0.27089193,-0.30346408,-0.49251992,0.21253514,0.4070123
0.17739254,0.12732227,0.20501089,0.010453873,0.14527895,-0.31451648,0.015245676,0.2983967,-0.3782766,-0.05619502,0.2253378,-0.27331203
0.17618255,0.085933715,0.27164748,0.08078327,-0.08054132,-0.5209691,-0.20098075,-0.04879517,-0.12787777,-0.699244,0.14794452,0.36759225
0.17660117,0.147234,0.19945908,-0.0052146777,0.028367253,-0.2579416,0.11749098,0.3379204,-0.30345428,-0.31499833,-0.005977273,-0.06054014
0.22462837,0.060585782,0.26339084,0.17274411,0.056356557,-0.8349352,-0.2573965,0.011199236,-0.009796649,-1.002698,0.18085912,0.43014756
0.25930718,0.11544224,0.20761013,0.062210593,0.33730814,-0.6691839,-0.026330918,0.2580322,-0.028202355,-0.42929828,0.12025517,-0.1971376
0.13121663,0.10201019,0.25350246,-0.12216951,-0.34547955,-1.5545219,-0.2170911,-0.024353288,-0.31138906,-0.9508659,-0.047974546,-0.35858905
0.27934262,0.09033085,0.19836862,0.07628093,0.5579345,-0.032792084,-0.12959634,0.276593,-0.05985549,0.01272285,0.34585053,0.10544792
0.26672783,0.053338666,0.18268186,0.28891978,0.4083424,-0.60231906,-0.24024394,0.3752552,-0.19392608,-0.5148748,0.3298516,0.22812471
0.27551198,0.07142755,0.1790469,0.25150007,0.3929,-1.0080013,-0.16193122,0.3830724,-0.118193,-0.7822055,0.2365191,0.009008557
0.22299828,0.13735133,0.22610855,0.0043058987,0.28924227,0.19491026,0.058495134,0.18659523,-0.08421686,-0.11190206,0.18731202,0.25002423
0.20297329,0.11954679,0.20018499,-0.020483155,0.04098641,-1.132537,-0.03608936,0.3337336,-0.27527374,-0.8774215,-0.02851748,-0.22008713
0.2007298,0.12999779,0.23184028,0.15209469,0.17502747,-0.65230215,0.07232952,0.16470864,-0.13172445,-0.8900415,0.20920336,0.18147388
0.2687513,0.101422876,0.22155473,0.044132665,0.27384502,-0.9137356,-0.08623046,0.19040579,0.057236075,-0.5805885,0.0346928,-0.23846205
0.23875216,0.1029142,0.23440129,0.030857792,0.1623665,-0.23811913,-0.09202132,0.1525178,-0.029743314,-0.35482007,0.044524454,0.2121853
0.15753205,0.08465742,0.2781693,-0.07570014,-0.25056037,-0.5222592,-0.2843341,-0.108288735,-0.14277005,-0.07359564,-0.010484349,-0.15469395
0.1654935,0.14881912,0.27747387,0.0052549844,-0.07545912,0.094796754,0.13222554,-0.05570957,0.023566544,-0.10905647,-0.04360857,0.071505636
0.13173398,0.087650694,0.25943694,0.0033677896,-0.29088354,-0.7780329,-0.2760657,-0.06268532,-0.3160898,-0.68897855,0.12819622,0.17102167
0.18810394,0.09374331,0.28400308,0.08109547,0.02452119,-0.9672071,-0.14851248,-0.09842509,-0.022501826,-0.45531172,0.17476943,-0.36703023
0.19027288,0.11638571,0.2627685,0.03401499,0.051680785,-0.28365156,-0.037118554,0.014300346,-0.077483535,-0.26979727,0.12043455,0.023129702
0.24862216,0.065389164,0.20450594,0.061553158,0.20138928,-0.49756587,-0.24984774,0.30077612,-0.17623296,-0.104040384,0.08619739,-0.13689664
0.19131558,0.09843057,0.19134209,0.19767992,0.10045061,-0.62244755,-0.08077334,0.36997214,-0.40025726,-0.9096986,0.23876557,0.3751293
0.19568662,0.08911039,0.22675556,0.067883715,0.0007970233,-1.1525631,-0.17130442,0.19156307,-0.26424545,-0.6667,0.10807459,-0.31696013
0.23732938,0.062719904,0.19266242,0.07801626,0.23785809,-0.36960286,-0.27512604,0.3629131,-0.29605138,-0.048756957,0.18329221,-0.03609231
0.15718202,0.08700022,0.2695667,0.21077037,-0.12575379,-1.3772743,-0.16128163,-0.061277084,-0.17835487,-1.0066216,0.26952383,-0.25003725
0.1320242,0.108176075,0.2636721,0.013729775,-0.26588047,-0.98463744,-0.1152879,-0.05253022,-0.24820602,-0.8522087,0.057668135,-0.025536835
0.21071304,0.10698097,0.18947968,0.0030980187,0.068431914,-0.74405056,-0.090552464,0.3890439,-0.3117292,-0.33629853,-0.009410225,-0.31721362
0.20858389,0.14133734,0.2446078,0.08682416,0.17881422,-1.074579,0.104387045,0.10245134,-0.01748547,-0.88738555,0.13374595,-0.279369
0.16237187,0.13324794,0.23743251,0.16805972,0.16984874,-0.29077798,0.1148051,0.121664226,-0.2537583,-0.58630735,0.3373672,0.18271568
0.24692576,0.07757519,0.25450963,0.047886666,0.15421377,-0.8190978,-0.19680883,0.054358497,0.053090364,-0.29863298,0.055605523,-0.31907427
0.12055932,0.1256919,0.25053468,0.019492246,-0.115250394,0.063960336,0.011829376,0.00987874,-0.34260505,-0.0833354,0.21796748,0.13133815
0.24133874,0.08795452,0.23158443,0.023670565,0.12393959,-0.08711455,-0.15952626,0.16878092,-0.05114603,-0.3964243,0.009196911,0.47051397
0.15213373,0.14925413,0.2865793,0.08606744,0.009242081,-0.6112022,0.17819723,-0.10633398,0.01955542,-0.82146966,0.11805709,0.028717697
0.1650122,0.12591502,0.24771619,0.07072822,0.13630931,-0.0136021385,0.031318992,0.068636075,-0.23948488,-0.24280643,0.31388962,0.19628373
0.31165653,0.04173806,0.16291276,0.26673886,0.46411347,-0.9993772,-0.25147834,0.41152778,-0.00033685565,-0.83242905,0.15873636,0.17272887
0.21426797,0.14747973,0.20201738,0.0032341308,0.21201845,-0.10483466,0.10690731,0.31115946,-0.16353512,-0.38688922,0.06789492,0.17739084
0.26300257,0.048853546,0.21418676,0.34489214,0.29293942,-1.0625851,-0.23920286,0.22362861,-0.07085675,-0.8504493,0.33353952,0.09797782
0.18227744,0.14373645,0.27644458,0.08824286,0.108303,-0.60203373,0.12948462,-0.05140371,0.042502552,-0.76667345,0.14586689,0.039490283
0.16940601,0.073217005,0.2440353,0.05181401,-0.045406096,-0.37436962,-0.30990213,0.06389415,-0.33503625,-0.25639206,0.25152922,0.18214425
0.1928741,0.11969427,0.20777957,-0.00756016,-0.003652028,-0.7510742,-0.032361984,0.29461095,-0.28180665,-0.41905558,-0.018280573,-0.2996904
0.1623195,0.15163834,0.25511643,0.004010538,-0.05691594,-0.16781135,0.14994898,0.05412124,-0.094724834,-0.27202505,-0.016893774,-0.045757264
0.12151555,0.09263113,0.25633854,-0.04691002,-0.24977626,-0.4994524,-0.29156584,-0.07938753,-0.37864065,-0.13421416,0.20725194,-0.07411781
0.14288072,0.1333546,0.24807882,0.13697115,-0.006232326,-0.36061803,0.110239804,0.06498779,-0.24795105,-0.702881,0.2104331,0.21916255
0.26703134,0.08346987,0.22660364,0.08503666,0.2493907,-1.2566552,-0.1505826,0.17320639,0.038871914,-0.75236475,0.06494439,-0.33830506
0.21068653,0.0910372,0.26878056,0.017997876,0.019498106,-0.5835162,-0.16536449,-0.011271365,-0.0077806413,-0.33898622,0.043734968,-0.079128474
0.26778716,0.13687873,0.17143588,0.05211934,0.42838117,-0.75008315,0.05903846,0.4035888,-0.053007513,-0.7647823,0.10391034,-0.020160764
0.19731067,0.07367446,0.2411599,-0.028213516,-0.092778124,-0.3709773,-0.28088513,0.116697624,-0.20860504,-0.25328267,-0.0052114017,0.16456035
0.11529395,0.11707408,0.26952127,0.09068267,-0.231833,-0.77022225,-0.021227837,-0.093544856,-0.24565339,-0.71251553,0.14273171,-0.06290364
0.22253573,0.12562576,0.19794957,0.102567665,0.23981413,-0.76541764,0.031226665,0.33002612,-0.19642587,-0.8011969,0.14929627,0.024132669
0.16407567,0.10083997,0.2772383,0.025001645,-0.11781951,-0.69122237,-0.14031127,-0.0805649,-0.11385995,-0.46872723,0.090929404,-0.08765131
0.12154338,0.118467875,0.24798355,-0.015270766,-0.26389486,-0.316674,-0.058459014,0.016872242,-0.34080434,-0.008788466,0.05960887,-0.24748498
0.123598255,0.118896216,0.23216699,0.09634656,-0.22329117,-0.65984595,-0.0039799213,0.109546036,-0.39510497,-0.9961678,0.11304809,0.3158963
0.15302062,0.12523149,0.2874455,0.002279483,-0.034669265,-0.20686634,-0.00015375018,-0.12819704,-0.06279367,-0.014665961,0.15633827,-0.19230458
0.30714306,0.028552067,0.17530203,0.2502624,0.46805862,-0.9221736,-0.3095473,0.36777022,-0.015614867,-0.40966237,0.18453206,-0.12969154
0.22430216,0.16214311,0.23549789,-0.061841752,0.46355528,0.54081225,0.15997586,0.117613,0.004353583,-0.049185097,0.3455088,0.4164802
0.17336129,0.12989257,0.23535597,-0.0057940306,0.110264964,0.38489977,0.024572313,0.14136621,-0.25886858,0.013515115,0.22789687,0.34667328
0.23271893,0.12655342,0.17683461,0.13979286,0.391383,-0.40193084,0.044145107,0.4187452,-0.23880218,-0.61607367,0.25456062,0.21122101
0.18626161,0.0876063,0.23714474,-0.014495114,-0.1071171,-1.096187,-0.21216914,0.13312572,-0.24698892,-0.9440709,0.010402441,0.06035003
0.10160383,0.102674134,0.2614947,0.11193127,-0.308452,-1.1083579,-0.14163268,-0.113468856,-0.34866384,-0.7271035,0.2248666,-0.29166442
0.12576732,0.1096871,0.27413583,0.090773046,-0.21179143,-0.80303365,-0.07488944,-0.10893059,-0.21358463,-0.73109806,0.15655373,-0.02357915
0.1899027,0.08152164,0.25034165,0.07068253,-0.025179185,-0.44775766,-0.21807918,0.06600545,-0.19712502,-0.55058694,0.14264289,0.31512973
0.21755761,0.06839667,0.24240735,0.06864423,0.22204635,0.010454374,-0.27616242,0.10385504,-0.1934683,-0.013667285,0.32184923,0.3077421
0.13895164,0.118767515,0.2431069,0.22913767,-0.04781189,-0.64379567,0.053440124,0.07280113,-0.30151305,-0.94390345,0.28024894,0.21517321
0.08105098,0.1346336,0.24932471,0.080159485,-0.22883064,-0.2855442,0.13560256,-0.025447555,-0.39244008,-0.2548002,0.18597114,-0.1853438
0.20670004,0.11756267,0.2268467,0.0402381,0.067432724,-1.1367426,-0.026336074,0.19719675,-0.1587007,-0.9069868,0.048705213,-0.20132338
0.22047366,0.13109961,0.22609052,-0.0034571853,0.12011372,0.116964675,0.025553852,0.19617164,-0.0744226,-0.22883445,-0.0016288348,0.32001486
0.20717153,0.109709546,0.27770904,0.20841679,0.2124208,-0.5012948,-0.014760643,-0.06851538,0.054390818,-0.71947825,0.3069666,0.25380477
0.22346006,0.14873774,0.20800003,0.22048621,0.38828677,-0.8661206,0.17055431,0.2530521,-0.07991809,-0.9768556,0.32388204,0.0073889494
0.18972397,0.08959607,0.26408905,-0.032084826,-0.105874516,-0.64293146,-0.20314223,0.0018373579,-0.1034506,-0.85939413,-0.01310185,0.42180982
0.1875149,0.10789363,0.2741276,-0.011374427,-0.08103303,-0.37111664,-0.097396135,-0.042568237,-0.025467396,-0.24376261,-0.014136948,-0.02938068
0.10732736,0.12382793,0.27070102,0.01716437,-0.31502143,-0.5148246,-0.0042278767,-0.10624721,-0.23570584,-0.5792867,0.032208405,0.06292617
0.15302664,0.11107397,0.26902324,0.04495804,-0.037958123,-0.27470967,-0.07600869,-0.050787486,-0.19241947,-0.2263264,0.21403107,0.02095446
0.3064004,0.070745096,0.17164096,0.3580106,0.5271434,-1.327855,-0.13232322,0.35583463,0.032945246,-0.8843243,0.3071,-0.16557507
0.23169716,0.088940576,0.20436187,0.1147531,0.22631033,-0.52987957,-0.13985156,0.30135182,-0.22364923,-0.45507753,0.18121403,0.08121863
0.23986603,0.16346437,0.20562796,-0.052924715,0.33421242,0.49799886,0.15149105,0.26237792,-0.0030442476,-0.0012990236,0.07888803,0.33889094
0.19906792,0.090069056,0.25346118,0.14823166,0.14345281,-0.71093357,-0.14292547,0.049057916,-0.15356636,-0.44075423,0.29569262,-0.12318385
0.27654523,0.09299619,0.20207281,0.043732073,0.29332533,-0.9621043,-0.1180664,0.27834916,0.0076223314,-0.62439764,0.012831755,-0.2120982
0.18852945,0.09015323,0.25420764,0.015249753,-0.08149767,-1.0989777,-0.18618838,0.050627306,-0.15713075,-0.7992196,0.041871972,-0.11579019
0.21140553,0.07376048,0.28462064,-0.00843549,-0.031720623,-0.22981486,-0.2587734,-0.09038031,0.056419253,0.03042078,0.0011388771,-0.0013278723
0.30255252,0.08329919,0.17138134,0.08992704,0.42006335,-1.3527112,-0.13677013,0.3831024,0.025753617,-0.921922,0.032171987,-0.26951084
0.18915297,0.13088366,0.28627005,0.121561125,0.18907157,-0.028070077,0.07167405,-0.10645208,0.0696463,-0.55212164,0.25490776,0.4614487
0.18358617,0.13243079,0.18279828,0.15218139,0.22445668,-0.16533324,0.093364805,0.41380128,-0.39517426,-0.72413194,0.25623253,0.48420897
0.08098973,0.13219129,0.25205487,0.033205647,-0.42101577,0.4212923,0.07778305,-0.048359342,-0.34901738,-0.062187612,-0.02491393,0.3989136
0.1468348,0.124663256,0.26063985,0.1579739,-0.06793064,-0.7546087,0.05952397,0.0019262284,-0.18274279,-0.98467195,0.18426087,0.15126935
0.2865967,0.04912036,0.23428538,0.1389685,0.378184,-0.4285257,-0.26995954,0.11934832,0.10040271,-0.14113057,0.1830084,0.012077957
0.1934723,0.15311758,0.22411019,0.10364297,0.21985812,-0.27775088,0.17704365,0.20215207,-0.13452297,-0.81124914,0.1911917,0.372619
0.21313463,0.107339375,0.23080868,-0.026688136,0.02228064,-0.960419,-0.09573704,0.17813236,-0.13599363,-0.90584564,-0.036460113,0.040261745
0.16304328,0.10339328,0.25327006,0.017749196,-0.04619754,-0.36644238,-0.13163486,0.032847464,-0.25394303,-0.13303173,0.17916498,-0.10480496
0.19245419,0.07104654,0.27335423,0.023613771,0.04129746,-0.52795255,-0.2999759,-0.054974817,-0.11910096,-0.047232628,0.22074649,-0.18116082
0.16782854,0.12952378,0.2326615,0.01998562,-0.055473726,-0.41331482,0.031096965,0.16067064,-0.24630052,-0.55262685,0.034716703,0.10688025
0.20091459,0.115740985,0.19045731,0.0030656604,0.056802455,-0.09544624,-0.04868403,0.38476828,-0.33071065,-0.10373944,0.0028419197,0.05707228
0.22278251,0.08036574,0.19475602,0.04552391,0.08133589,-0.6913523,-0.20294228,0.360755,-0.29111433,-0.970015,0.034012794,0.4844354
0.19393626,0.11912806,0.20630932,-0.036379557,-0.015365387,-0.49855828,-0.044638157,0.30203664,-0.28529298,-0.8134487,-0.049073383,0.35950956
0.2300783,0.06786608,0.26048782,0.020469792,0.06467274,-0.14844991,-0.26233393,0.030518487,-0.005422592,-0.0694322,0.042772844,0.18401566
0.17038345,0.11124022,0.27598315,-0.00043937762,-0.12434401,-1.02652,-0.081764475,-0.0616638,-0.068627894,-0.99286795,0.011574954,0.047507346
0.2572035,0.08385095,0.20376953,0.041480757,0.27706018,0.14095281,-0.16858327,0.2933256,-0.11921832,0.062107563,0.106089815,0.25263485
0.20999359,0.12105919,0.22578111,0.08428858,0.28711423,0.06529563,0.0040897727,0.18878725,-0.18467298,-0.28560603,0.29495284,0.35917524
0.20937335,0.077529304,0.26488674,-0.0004426772,-0.03502378,-0.8795261,-0.23905428,0.0063976794,-0.046140075,-0.951091,0.00965748,0.31047073
0.27932817,0.08148787,0.22664182,0.05241185,0.2737119,-0.74714273,-0.16009627,0.16199827,0.09884113,-0.36306286,0.018873043,-0.21588378
0.20623913,0.10377316,0.26991925,0.27057573,0.17266116,-1.2588184,-0.025319636,-0.032372735,0.017716944,-0.9318841,0.3283599,-0.28000233
0.121486396,0.1269183,0.24496749,0.065185316,-0.06268885,-0.11783183,0.04400766,0.041774407,-0.36437854,-0.2404257,0.2642488,0.066455185
0.28009674,0.059487883,0.21859549,0.22713281,0.36008972,-1.2133262,-0.21171539,0.19419938,0.029000342,-0.6399561,0.22287616,-0.30501115
0.20572221,0.07560526,0.25656927,-0.03055443,-0.0623638,-1.1411382,-0.2616467,0.045259714,-0.10246402,-0.8834926,-0.017247915,0.005335659
0.17289504,0.08525422,0.23759724,-0.045165997,-0.17412753,-0.8918402,-0.25022426,0.11538777,-0.295085,-0.9346396,-0.00022736937,0.29698297
0.31342864,0.11024105,0.15166414,0.25620577,0.6285411,-0.7694208,-0.0077741444,0.40992203,0.08062595,-0.9238513,0.253874,0.2978625
0.146155,0.11113185,0.2804863,0.07818781,-0.15875722,-1.1545959,-0.061433733,-0.1071015,-0.11904001,-0.88068205,0.11264661,-0.22853754
0.23021898,0.08035956,0.23120584,0.17111357,0.18279609,-0.44094014,-0.16363381,0.16650191,-0.12497839,-0.6842487,0.21619573,0.4255173
0.24891044,0.089195676,0.2207754,0.025225088,0.15963161,0.0971012,-0.14979357,0.21730068,-0.05928287,-0.24698675,0.0036872067,0.49597064
0.2877776,0.17465444,0.15324856,-0.051677648,0.58927834,-0.71544737,0.17479053,0.40883526,0.099962294,-0.59647673,0.09692316,-0.29512948
0.1789326,0.079317324,0.23874712,-0.035332248,-0.15379678,-1.0527081,-0.27479005,0.11390659,-0.27917355,-0.80294096,0.011077993,0.027085572
0.21451065,0.11075263,0.2697438,0.17033605,0.20760347,-1.0299782,-0.020555347,-0.0255806,0.043554395,-0.6993478,0.25375935,-0.2908102
0.26896185,0.08990679,0.18514322,0.053712003,0.48485345,0.3360789,-0.13993017,0.35942745,-0.15332815,0.064685225,0.2817386,0.42268524
0.23239231,0.16625421,0.19872397,0.0006398835,0.34643435,-0.13866168,0.18194145,0.29826468,-0.045278013,-0.61516935,0.10769293,0.30263397
0.2512507,0.068799034,0.2638381,0.18281147,0.23780061,-0.9614666,-0.20015238,-0.00089773536,0.10109681,-0.6416905,0.21263677,-0.09129089
0.21147928,0.10834538,0.27845207,-0.015399506,0.014575677,-1.2211559,-0.08771536,-0.057258546,0.083682895,-0.8976082,-0.02125267,-0.23616406
0.11770207,0.11534328,0.2477826,0.016614027,-0.24673985,-0.30286783,-0.07001208,0.006877646,-0.36407578,-0.28830004,0.116882324,0.047438323
0.17221037,0.104261674,0.24287447,-0.018366009,-0.15317681,0.21457183,-0.12749077,0.09962992,-0.23314498,0.06725073,-0.02079105,0.2761278
0.19441558,0.11112668,0.21657778,0.15163998,0.20851785,-0.67203826,-0.027219445,0.23457515,-0.2928016,-0.489268,0.30715752,-0.14387377
0.13106659,0.131109,0.24434984,0.021012617,-0.09869895,0.04237172,0.05005458,0.06619285,-0.32158384,-0.10248959,0.15656035,0.09172854
0.24105883,0.14763539,0.20107605,-0.005052723,0.26572466,-0.603869,0.09490368,0.29447088,-0.043149292,-0.9706567,0.024275675,0.2737418
0.1142501,0.11844016,0.26808792,0.05170809,-0.1473352,-0.5173226,-0.030513823,-0.09599659,-0.28268468,-0.23679775,0.23919794,-0.2643963
0.20267949,0.119403444,0.22482967,-0.004804248,0.0014619092,0.30839545,-0.03140077,0.20830956,-0.1697442,-0.12942767,-0.03756893,0.4691269
0.31758982,0.028383994,0.17564318,0.3493507,0.58649665,-1.0459061,-0.29034236,0.33402273,0.03198576,-0.37515968,0.31841797,-0.25153452
0.26101688,0.06754757,0.19080767,0.20651025,0.39721394,-0.6945754,-0.20211223,0.3433053,-0.1845332,-0.3804437,0.29391715,-0.061472774
0.22619542,0.12840706,0.22613081,-0.0051514674,0.11003007,0.2995573,0.01219058,0.1941812,-0.0499582,-0.11033952,-0.03434625,0.39714965
0.20896807,0.06682254,0.2255702,0.1388601,0.08056627,-0.81163996,-0.25971395,0.19463867,-0.262953,-0.5584564,0.21427181,0.008253694
0.085677475,0.13754825,0.25099373,0.05023043,-0.25898457,0.015588637,0.13692033,-0.019861855,-0.36160102,-0.11096436,0.1188027,-0.01942414
0.24789064,0.11732143,0.22501628,0.006825989,0.20050016,-0.38808855,-0.032810956,0.18853965,0.006622374,-0.027896464,0.005454827,-0.32667962
0.24682099,0.1532031,0.19113383,-0.0814488,0.5487625,0.1943092,0.105784,0.31610176,-0.10386214,0.041595697,0.34203738,0.022432953
0.230356,0.0835994,0.22556144,0.016864179,0.081056155,-0.46384132,-0.1886513,0.20304826,-0.13312879,-0.10273713,0.012926243,-0.17172264
0.27107,0.07843038,0.21315569,0.23659989,0.37042943,-0.50304484,-0.13733776,0.22192448,-0.010628581,-0.7211617,0.25552148,0.41815904
0.11560674,0.11986743,0.2551785,0.010801407,-0.31209183,-0.51788867,-0.03672883,-0.023527697,-0.30245143,-0.98093766,0.025931962,0.49453858
0.29681122,0.08075059,0.17484424,0.06772786,0.42179152,-0.15148835,-0.15474583,0.3799633,-0.011491954,0.035842896,0.05843337,-0.018473446
0.1844379,0.13767885,0.2566495,0.053313356,0.05126224,-0.78203905,0.08378813,0.048017368,-0.06136799,-0.76325727,0.083013624,-0.1015861
0.16162945,0.10187116,0.27031898,-0.0055136024,-0.10336324,0.271685,-0.14923505,-0.051648006,-0.16661142,-0.08605474,0.11564846,0.5061766
0.14895986,0.1367413,0.2502516,0.04744988,-0.10600251,-0.39387104,0.08867851,0.06441803,-0.20021485,-0.96752375,0.04568804,0.47989973
0.25438246,0.05221864,0.2032238,0.016947264,0.13744499,-0.88755596,-0.30865854,0.30785242,-0.14951855,-0.8564418,-0.033928342,0.2766789
0.20214991,0.08401933,0.24834217,0.018729202,-0.021851286,-0.5336713,-0.20798428,0.085777074,-0.14985958,-0.45612413,0.051858105,0.12950066
0.2261223,0.16536918,0.22601895,-0.017254751,0.36678278,-0.2260367,0.17950091,0.1706016,0.012223542,-0.26137918,0.18753889,-0.14286588
0.2683364,0.12619682,0.19656463,-0.011695897,0.29239818,-0.0032784767,0.0003426969,0.2985378,0.018610388,-0.42200893,-0.027104385,0.41489354
0.17674965,0.092052236,0.2576216,0.061082706,0.10487207,-0.16214545,-0.18392737,0.007879972,-0.23524909,-0.12048638,0.34403345,0.14079878
0.24679756,0.15852706,0.20717531,0.0922589,0.47930452,-0.8025223,0.16652045,0.23570302,0.021554232,-0.661074,0.25867888,-0.2644756
0.2865165,0.05547425,0.20998757,0.16255505,0.47151774,0.114144266,-0.24585497,0.22802046,-0.009924501,-0.1064201,0.27936316,0.50887144
0.16497618,0.08725886,0.24981737,0.0018312008,0.03662107,-0.53283286,-0.25368816,0.026699245,-0.32677436,0.022494793,0.3360629,-0.3004812
0.10176731,0.1190161,0.25868756,0.14182147,-0.23865114,-0.59692925,0.01980114,-0.06012003,-0.32441097,-0.7611522,0.19349486,0.10168022
0.2272644,0.060467027,0.2359712,0.29994273,0.12770161,-0.8702269,-0.22202855,0.13571683,-0.121190995,-0.9745198,0.31686777,0.34756526
0.2505516,0.09614523,0.25413284,0.15777548,0.3636928,-0.29947194,-0.08939366,0.035969675,0.074590385,-0.4101475,0.29125276,0.23565975
0.23469886,0.049585305,0.23641379,0.14008363,0.08184258,-0.804927,-0.30875313,0.1462251,-0.108002156,-0.91803926,0.13603689,0.42968085
0.17444901,0.09927429,0.22997704,0.1389359,0.06797985,-0.39092276,-0.10573235,0.15579948,-0.32978362,-0.47709054,0.28754842,0.18516508
0.15905058,0.13261344,0.26228958,0.13439414,0.12495836,-0.23225625,0.09916243,-0.0011970848,-0.15213007,-0.5080894,0.30184567,0.17383948
0.20543909,0.13576093,0.18394466,0.13498841,0.33163485,-0.18066542,0.096346945,0.39737198,-0.30745918,-0.60912466,0.2797452,0.36202207
0.2570422,0.05658895,0.2239027,0.027496116,0.13410588,-0.40172523,-0.2829807,0.20321774,-0.049211383,-0.5660794,-0.020829499,0.44832
0.21861395,0.07292321,0.24552915,0.039056126,0.12422327,0.20135976,-0.2511891,0.09903529,-0.14293042,-0.038888574,0.17403899,0.49371812
0.067055084,0.12877464,0.25487846,0.048248217,-0.35506544,-0.03613506,0.06683114,-0.10303299,-0.39723465,-0.15283161,0.14437835,0.03568262
0.18454297,0.09048682,0.2599804,-0.012019964,-0.0599133,0.24892005,-0.20027095,0.017043784,-0.15834996,-0.001914978,0.08020078,0.45145532
0.16942286,0.15290338,0.20001008,0.01110814,0.103541195,0.16347659,0.16159946,0.33284652,-0.3264258,-0.28539425,0.09795658,0.28793564
0.17766224,0.11551744,0.26988736,0.08376383,0.07614717,0.1089354,-0.026783675,-0.03066405,-0.09632057,-0.3803481,0.22093824,0.51405776
0.108854264,0.12821753,0.2785427,0.14311512,-0.20979641,-0.6786344,0.0911099,-0.124700814,-0.17520066,-1.0077401,0.1423545,0.20478895
0.23136587,0.14730288,0.18379676,-0.01719758,0.27326617,0.12467027,0.09443119,0.38821933,-0.1564534,-0.21086353,0.042831868,0.23978433
0.3035982,0.10821995,0.17957473,0.075366594,0.46550342,-0.88439614,-0.047397345,0.32673106,0.100497425,-0.8330396,0.062123507,0.023934841
0.117728405,0.112220645,0.2709156,-0.025670175,-0.26319546,-0.08791254,-0.11565761,-0.1145291,-0.25782835,-0.050108075,0.108130634,0.08024025
0.19259255,0.07852879,0.26618955,-0.06682819,-0.12323556,-1.1488938,-0.27184498,-0.010822065,-0.09890753,-0.8525058,-0.04096092,-0.01872322
0.22256722,0.110638924,0.23736003,0.028819446,0.27897498,0.13684304,-0.064587176,0.13313755,-0.11396313,-0.038223386,0.26125965,0.2437965
0.13609889,0.10389878,0.240801,0.100215636,-0.03697775,-0.059899174,-0.11495562,0.049780607,-0.40490568,-0.3111269,0.34509546,0.34573427
0.26625016,0.1045424,0.19819416,0.2365042,0.41984174,-1.0392612,-0.03048408,0.2854254,-0.040163726,-0.8251884,0.27773738,-0.107364506
0.12460434,0.14536881,0.22927395,0.09141349,-0.036986217,-0.19549185,0.18388331,0.15540853,-0.35635576,-0.51460224,0.16928858,0.12517741
0.15199819,0.12761793,0.23665503,0.004290334,-0.17349048,-0.1864261,0.015167147,0.12787172,-0.27028385,0.051606894,-0.031164961,-0.25368804
0.19845231,0.091202736,0.20972748,0.19411604,0.13919893,-0.3372294,-0.12061022,0.2707578,-0.3302413,-0.6702075,0.2821677,0.4619312
0.20229524,0.084731594,0.28046852,0.08110373,0.058836512,-0.6106015,-0.18803546,-0.07584438,-0.0053440332,-0.41989797,0.16872352,-0.0030717254
0.19283131,0.09914609,0.25558862,0.05859547,0.032409806,-0.78685385,-0.12248103,0.046410576,-0.13677078,-0.396806,0.14053276,-0.2690693
0.15940431,0.09301377,0.2272489,0.051596962,-0.1317472,-1.0536034,-0.18449672,0.1572392,-0.3843642,-0.6106378,0.13004906,-0.27033874
0.19782478,0.09099637,0.19712627,0.16757822,0.06829797,-1.3872882,-0.12782344,0.34286368,-0.36505556,-0.95466983,0.19276689,-0.3008067
0.081478894,0.14288719,0.25642088,0.036668524,-0.36948344,-0.37700075,0.1692346,-0.041824013,-0.30060583,-0.7727042,-0.038869783,0.22431931
0.19119796,0.14152636,0.20198607,-0.0028875775,0.25951925,0.41118777,0.08816385,0.3133324,-0.30711877,-0.07914013,0.2533403,0.4018499
0.17299184,0.0799813,0.27682298,0.2451435,-0.02475639,-1.2231984,-0.18194969,-0.08689955,-0.112590015,-0.8551306,0.32797542,-0.21389242
0.26839155,0.16632469,0.19031256,-0.05465832,0.4147806,-0.3764978,0.14861542,0.29321605,0.095778465,-0.3384573,0.030793011,-0.19613962
0.20667052,0.1135126,0.24543682,0.16337359,0.2667171,-0.78296196,-0.010166019,0.08816007,-0.11692926,-0.4852969,0.33692557,-0.26781136
0.1797674,0.09505578,0.28008565,0.061755296,-0.058163553,-0.98951954,-0.15076524,-0.082142554,-0.056977183,-0.65631306,0.11438188,-0.18909115
0.24380936,0.07645025,0.23039085,0.044551652,0.22479434,-0.35802567,-0.21028402,0.17137122,-0.09395507,0.02692902,0.15169594,-0.16980012
0.19592217,0.13023263,0.2633409,0.18274212,0.25075668,-0.6248953,0.086071104,0.0008583516,-0.018803537,-0.66836905,0.32303354,-0.021311253
0.24150722,0.06310938,0.2488378,0.10135874,0.21593708,-0.4272109,-0.2588027,0.07992092,-0.04104778,-0.20634294,0.20002618,0.049731195
0.28922668,0.054267272,0.20800185,0.16522372,0.38502842,-0.6428205,-0.24084675,0.24018455,0.022301733,-0.37119132,0.16183357,0.009338886
0.23755388,0.09989705,0.22415185,0.025104601,0.18545654,-0.04929546,-0.10885994,0.20355305,-0.09343049,-0.05836326,0.07708353,0.120510966
0.11220447,0.13822202,0.2819548,0.08303697,-0.0790088,-0.26763982,0.14228958,-0.12943166,-0.15769726,-0.34734237,0.20908356,-0.07605186
0.16205302,0.15732133,0.19976991,-0.052231435,0.19167003,0.18826339,0.17617494,0.32586,-0.37498674,0.06972301,0.2475535,-0.062232107
0.16549893,0.14100674,0.23023923,0.08594315,0.072038606,-0.85632944,0.12408346,0.17302677,-0.24429865,-0.620154,0.16222303,-0.36052048
0.24684285,0.091275245,0.25851536,0.1344515,0.3870661,-0.7180121,-0.12131345,0.014860362,0.05379334,-0.23360914,0.34155136,-0.33394286
0.2214038,0.10865894,0.26713616,0.05049339,0.19360404,-0.0042701466,-0.066214085,-0.007662244,0.037357092,-0.21744323,0.17090319,0.28484085
0.23289014,0.10041449,0.21985024,0.033352815,0.13173628,-0.769219,-0.10460761,0.2277939,-0.11674872,-0.68471897,0.03030122,0.023373783
0.2355469,0.08980493,0.2543103,0.03689047,0.12585256,-0.355262,-0.15140882,0.058260575,0.021039486,-0.32800835,0.053537793,0.12716499
0.27066013,0.0777824,0.22130619,0.1813323,0.35209748,-1.1285536,-0.15295959,0.18821013,0.012432337,-0.5796883,0.21106073,-0.35177684
0.17789213,0.13595685,0.22484966,-0.0016540777,0.011546369,0.30252683,0.057750493,0.20569098,-0.23677681,0.023061275,0.042719774,0.22172078
0.17380796,0.13290918,0.2018094,0.04625209,0.02237804,-0.92146254,0.059239298,0.32338944,-0.34623402,-0.8416405,0.06369514,-0.13908628
0.2908456,0.10447295,0.17535302,0.030253626,0.3903892,0.15303059,-0.07293545,0.37569943,0.010400236,-0.031077862,0.005402595,0.2630587
0.1842808,0.06940131,0.26437864,0.07914854,0.0008446771,-0.84068197,-0.29908562,-0.01834257,-0.18638358,-0.32129723,0.24078593,-0.22802302
0.20986483,0.07097103,0.2827927,0.22515962,0.073363155,-0.9638328,-0.20662406,-0.09163725,0.037109047,-0.8727113,0.26803878,0.118180364
0.23693702,0.05710603,0.28164953,0.15428649,0.1958691,-0.2381836,-0.27623236,-0.082784735,0.0989002,-0.40800405,0.23385009,0.46199277
0.14100459,0.098131396,0.23750171,0.12876318,-0.18456058,-0.5745905,-0.13261355,0.083856,-0.37140587,-0.902033,0.19156712,0.4264845
0.23285006,0.060576968,0.23079507,0.32662538,0.1678349,-1.5253631,-0.21089235,0.157421,-0.11981416,-0.9546094,0.34287164,-0.32681793
0.14865898,0.08891767,0.2599637,-0.07733302,-0.27519676,-0.19938017,-0.26999503,-0.032338493,-0.25751638,-0.19078398,0.004344523,0.27199242
0.12417923,0.09877325,0.26280376,-0.05562161,-0.29150847,-0.7271544,-0.23042262,-0.08671332,-0.30868652,-0.13859254,0.10004553,-0.35271576
0.20216638,0.07359984,0.23789343,-0.04008634,-0.074349284,-1.5696117,-0.27962106,0.13590169,-0.2058919,-0.96000344,-0.021866895,-0.3278688
0.27309588,0.09291484,0.1837269,0.14538698,0.39070985,-0.7447416,-0.098467395,0.36240774,-0.08660129,-0.6420795,0.16077575,0.03813514
0.2096938,0.10214676,0.2779284,0.1851542,0.110391855,-1.1050498,-0.058386087,-0.062362313,0.06634423,-0.9856475,0.21301663,-0.050402045
0.11315368,0.13248377,0.27455547,0.057544578,-0.22843191,-0.80582905,0.08010191,-0.09789141,-0.1845409,-0.64709944,0.06260688,-0.2507831
0.17816512,0.1435603,0.2031363,0.07830578,0.23550476,0.17296036,0.13310286,0.30704013,-0.32772076,-0.41534942,0.26673764,0.46335694
0.20246445,0.09896283,0.20953345,0.0018898778,0.0017000517,-0.7650539,-0.13491169,0.2851999,-0.28471285,-0.8474391,0.002193261,0.21729884
0.29104602,0.08059477,0.2050128,0.076171316,0.33471346,-1.300859,-0.15323056,0.24847609,0.07481328,-0.83160675,0.028275453,-0.29973453
0.18210106,0.1090928,0.21475378,0.047659,-0.0064479904,-0.61335206,-0.074549615,0.2522123,-0.32728583,-0.58761287,0.08667047,0.04685366
0.22875132,0.06418437,0.18987459,0.16968788,0.21555647,-0.88690984,-0.24909261,0.37599882,-0.3316418,-0.4815725,0.23344406,-0.13542633
0.15597102,0.1001447,0.23949435,0.03378287,-0.1685204,-1.1523079,-0.14592275,0.096561894,-0.31767058,-0.7718781,0.08229141,-0.24371472
0.08807286,0.13887778,0.26222652,0.034448426,-0.36247522,0.016959498,0.12997991,-0.0679393,-0.26992798,-0.4962963,-0.029463906,0.379361
0.05080174,0.1357047,0.2510411,0.083887435,-0.4415272,0.58685225,0.16904512,-0.08810101,-0.39816782,-0.07430339,0.037470564,0.47258702
0.17493021,0.10309969,0.25236273,0.1716306,0.008609964,-0.93188125,-0.067218155,0.050383806,-0.19252284,-0.81693,0.23509195,-0.05917996
0.2993503,0.044084556,0.19868994,0.1466626,0.35127458,-1.3248973,-0.27196318,0.27572268,0.050283313,-0.65784824,0.065040044,-0.36244288
0.3065548,0.042544976,0.20836109,0.2248803,0.52059585,-0.65149844,-0.26686445,0.20791331,0.08929628,-0.21015996,0.26894978,-0.10572213
0.2363409,0.08744482,0.26806438,0.018199833,0.09513452,-0.265429,-0.16584331,-0.00847768,0.09323603,-0.17918509,0.012268037,0.08055854
0.17504326,0.13306403,0.25526616,0.1261121,0.14134982,-0.1648548,0.09040499,0.04395993,-0.12764564,-0.5756211,0.25390425,0.32350895
0.19861121,0.12550288,0.23582244,0.20542121,0.17516269,-1.0122421,0.06695446,0.1416561,-0.12635335,-0.96891534,0.2602049,-0.09052941
0.22618979,0.07349386,0.22200434,0.014049199,0.05105672,-0.72401124,-0.2407627,0.22209379,-0.18041863,-0.1287018,0.011351474,-0.35415763
0.22672635,0.0914069,0.22578934,0.08652787,0.22552289,-0.63054305,-0.13966705,0.19418338,-0.16709507,-0.24764538,0.21493682,-0.23270859
0.19346297,0.105463095,0.28066403,-0.0049680728,-0.046844997,-0.26572275,-0.10631974,-0.07252389,0.020297736,-0.0067931414,0.0051187724,-0.15249439
0.24932612,0.052232534,0.2556403,0.02076834,0.09093562,-1.3684183,-0.3104944,0.051916912,0.049076617,-0.78436196,-0.011400867,-0.27302402
0.24713574,0.0538897,0.22559115,0.25633857,0.20376223,-0.9100319,-0.24974106,0.18643546,-0.09777516,-0.8349961,0.2600102,0.20968708
0.21013261,0.06767493,0.2081126,0.010289605,0.023207914,-0.6345169,-0.2914334,0.2905157,-0.3228106,-0.05538851,0.05756872,-0.28762704
0.20190527,0.09502283,0.2748661,0.05916677,-0.0033931395,-1.3418003,-0.13669924,-0.043189086,0.0021203756,-0.9123364,0.07471867,-0.29407886
0.18230279,0.07995492,0.20706376,0.060240477,-0.078253634,-0.76660544,-0.23704594,0.2834503,-0.40625867,-0.9031132,0.097829744,0.36647668
0.23358569,0.09249422,0.25556052,0.07995499,0.19977042,-0.5875081,-0.1305338,0.048256636,0.00759086,-0.3281799,0.16136308,-0.11931819
0.24930432,0.1484135,0.18454246,-0.012098379,0.38604385,0.23057294,0.09607133,0.36105904,-0.08175683,-0.23143816,0.10903965,0.36712077
0.17715736,0.14917529,0.19885355,0.03422494,0.084537596,-0.61577356,0.1425434,0.33985138,-0.3011159,-0.8509071,0.06087914,0.094925076
0.27363324,0.14753038,0.18481693,0.024550814,0.59476,-0.41924793,0.095674515,0.31368473,0.013879329,-0.276608,0.2735079,-0.21809082
0.2561885,0.094279304,0.2023171,0.04464782,0.23668495,-0.8193207,-0.120776206,0.29920998,-0.09396967,-0.39973313,0.038094163,-0.29197222
0.1350834,0.07347618,0.24693629,0.18104139,-0.2487043,-1.2485315,-0.3006712,-0.0065567717,-0.38195586,-0.89672446,0.31167573,-0.12120214
0.15641701,0.092061706,0.27443063,0.11571888,-0.1590024,-1.3428628,-0.16570625,-0.08031209,-0.1533457,-0.97737837,0.16792186,-0.22529444
0.23763007,0.12927654,0.19229558,0.044782117,0.45048156,0.20052528,0.030363858,0.33584362,-0.18838872,-0.17814738,0.30669796,0.36266336
0.11490956,0.13502726,0.22732803,0.02701358,-0.24745701,-0.31916794,0.083025336,0.14105427,-0.40084395,-0.48570138,0.012391381,0.07939327
0.3107593,0.036263473,0.18605585,0.34891284,0.5389112,-1.2160932,-0.26328862,0.2969782,0.041355073,-0.5036365,0.31548786,-0.3250341
0.17707624,0.11801399,0.2549787,0.11883998,0.044885967,-0.18745139,0.00077465177,0.045948625,-0.14850485,-0.6813791,0.1892243,0.48971155
0.3170294,0.047656693,0.1650208,0.28037408,0.57023907,-1.0587798,-0.23052108,0.384788,0.019458055,-0.45026487,0.23994452,-0.27332893
0.17099525,0.12290091,0.20730695,-0.040450543,-0.0951332,-0.8720927,-0.02884385,0.2899509,-0.35570848,-0.887278,-0.048384316,0.047189742
0.2972685,0.12912183,0.17493379,0.005934501,0.51029354,-0.05284454,0.015158266,0.3449211,0.08202392,-0.15019506,0.08418183,0.08649725
0.24644218,0.14837497,0.17419264,-0.01400818,0.33138663,-0.356669,0.09521595,0.41638663,-0.114118665,-0.55012184,0.03395231,0.098603815
0.2371463,0.097368866,0.26044536,0.10183195,0.2749569,-0.35773185,-0.10183342,0.017929614,0.045859873,-0.3089921,0.23135945,0.069456995
0.3176058,0.081258796,0.16844943,0.07305155,0.4659625,-0.010770735,-0.14181457,0.3679567,0.09945881,-0.26797652,0.0039631315,0.416612
0.13719615,0.100949414,0.27484328,-0.11310947,-0.31734866,-0.6550045,-0.21447021,-0.1155077,-0.1890369,-0.91401476,-0.04845875,0.497503
0.22555333,0.11630816,0.18134968,0.011701365,0.29090232,0.31059352,-0.04090017,0.4162394,-0.29599264,0.0031018257,0.17088452,0.35007378
0.15540306,0.12178111,0.24703124,0.0772145,0.07107225,-0.44241658,0.008367211,0.06410368,-0.27790493,-0.270348,0.29456,-0.18606412
0.20353247,0.16024086,0.2325431,0.008081533,0.15604372,-0.9491878,0.1712197,0.16196108,-0.036049366,-0.9131385,0.04341145,-0.20446923
0.21268398,0.07841378,0.19538622,0.022938564,0.043465316,-0.79365754,-0.22879866,0.35879448,-0.33921996,-0.41932404,0.030614518,-0.14491418
0.126611,0.12556435,0.26069862,0.2368561,-0.07193718,-0.7477875,0.108469784,-0.020138167,-0.22794189,-1.0004796,0.2704542,0.10736269
0.25477254,0.08849853,0.18745211,0.17137095,0.45554852,-0.54125476,-0.123415604,0.35607204,-0.206022,-0.29835904,0.33923775,-0.07200211
0.13778923,0.10007022,0.25808483,-0.11162418,-0.32789057,-0.56775856,-0.2180951,-0.034346834,-0.27189517,-0.72048753,-0.050462384,0.3944629
0.25963557,0.14713036,0.19396164,0.10676112,0.5380342,-0.48395288,0.11694121,0.28805545,-0.008068204,-0.5551693,0.2898947,0.005803913
0.19054474,0.14471966,0.23501608,0.17319576,0.2576137,-0.9966209,0.1607016,0.14211318,-0.12381971,-0.78030753,0.29608297,-0.35260555
0.115714915,0.1106888,0.2507463,-0.051409893,-0.3642713,-0.8715075,-0.13598433,-0.023747057,-0.34533367,-0.48993355,0.0015419982,-0.23625457
0.1474384,0.086779065,0.26941153,0.0092949085,-0.14591673,-0.681265,-0.2654128,-0.08501731,-0.249613,-0.23696733,0.20162857,-0.1874547
0.18072192,0.14956757,0.2807628,0.0020604886,0.02064688,-0.26722658,0.12887153,-0.06894666,0.080482095,-0.49615747,0.009865116,0.1001077
0.25300196,0.08536638,0.22890912,0.123320945,0.27001604,-0.74516594,-0.1421456,0.16896915,-0.030531257,-0.49846494,0.1672082,-0.08219975
0.23529111,0.12989613,0.19699481,0.021989245,0.35298282,-0.22352062,0.026995212,0.32298252,-0.16528302,-0.15366274,0.1969832,-0.09052262
0.19320169,0.077683605,0.2203865,0.056646716,0.14191473,-0.098011136,-0.2570032,0.20551872,-0.37170216,-0.05835867,0.31833497,0.21983907
0.22734877,0.145758,0.22628132,0.109585896,0.37422815,-0.14942126,0.1258297,0.17157227,-0.027237773,-0.60327864,0.26185244,0.3596824
0.098583415,0.13935637,0.25029182,0.07981389,-0.22823818,0.15076812,0.15291157,0.012035906,-0.3223678,-0.52925396,0.083863094,0.5113679
0.25543654,0.1279552,0.20314842,0.004480166,0.33437875,0.01882972,0.011998326,0.2794703,-0.038593233,-0.087340415,0.093789935,0.09592441
0.18245336,0.10920197,0.21320227,0.0018326807,0.12555012,0.29045707,-0.09513925,0.25048444,-0.37727073,0.040436625,0.25214365,0.34592018
0.17557266,0.11219352,0.28206092,0.123860925,0.04038411,-0.6668377,-0.031372786,-0.0910395,-0.03409764,-0.629582,0.20891297,-0.011072189
0.22760043,0.057246696,0.26740846,0.14091264,0.14594279,-0.91390324,-0.2881434,-0.011040539,-0.012099862,-0.4278307,0.2233507,-0.18868676
0.17356846,0.14620037,0.25168514,-0.015485997,-0.061578006,0.11074032,0.10718045,0.07270311,-0.08634189,-0.44593912,-0.050915178,0.45012578
0.18587531,0.13679278,0.20924613,0.17795667,0.27656442,-0.09452548,0.1252284,0.26883283,-0.28039297,-0.66198814,0.33667693,0.46585813
0.19019447,0.07067454,0.21868184,0.26294714,0.03172699,-1.0846698,-0.21553046,0.21424004,-0.34023196,-0.8729428,0.32822415,-0.007901669
0.16840649,0.10845718,0.21455982,0.045885522,-0.030670643,-0.3939165,-0.084818676,0.24259445,-0.38642114,-0.3922249,0.1266471,0.078945875
0.104466215,0.14239104,0.28025368,0.03718152,-0.24795967,-0.1393381,0.14796397,-0.12303583,-0.145839,0.029643655,0.018208288,-0.3215069
0.13042097,0.090914324,0.25726593,0.03514889,-0.19517562,-0.6756795,-0.24893737,-0.05630306,-0.34953877,-0.35037905,0.2388033,-0.09636626
0.21900925,0.10690991,0.24067591,0.18147801,0.25167534,-1.0081553,-0.036771894,0.1141388,-0.09080866,-0.617689,0.2898457,-0.32869938
0.1679432,0.111121394,0.25929752,0.12996846,0.005688179,-0.57628924,-0.036580116,0.014921844,-0.17441943,-0.65663385,0.21343625,0.10691282
0.2191738,0.13101147,0.235373,0.16546747,0.35568002,-0.3835514,0.07622862,0.13133842,-0.064136714,-0.58477855,0.33306217,0.16107264
0.11156094,0.10634833,0.2634569,-0.017938916,-0.23574127,-0.3457202,-0.17274848,-0.10957608,-0.34076726,-0.107242525,0.2162349,-0.06879869
0.13119106,0.11787103,0.23078944,0.21880387,-0.027677685,-0.7704938,0.045974523,0.12121138,-0.3965698,-0.7547499,0.31994823,-0.09489855
0.27386126,0.17012282,0.16616282,-0.079353124,0.47168747,0.49062502,0.15660149,0.38986138,0.052742153,-0.031742632,0.035232782,0.34693953
0.15707503,0.12770289,0.282537,0.005604355,-0.12695633,-0.009486663,0.015986651,-0.09490363,-0.039934635,-0.42508268,0.0085706,0.3990145
0.26032573,0.08826359,0.2344702,0.1685834,0.30519873,-0.9407123,-0.11474785,0.13224846,0.03959623,-0.68857676,0.19732454,-0.10049322
0.144844,0.11287709,0.26898104,0.12531607,-0.123725355,-0.67092276,-0.030815333,-0.051303796,-0.17883927,-0.8680781,0.16823882,0.20541796
0.14049886,0.10244618,0.26461464,0.04462848,-0.06274353,-0.013370547,-0.14778143,-0.061306745,-0.2797583,-0.18720925,0.29029357,0.31107566
0.30058637,0.034781635,0.21029001,0.23481074,0.54746777,-0.5446729,-0.30438986,0.20513323,0.042209566,-0.099446595,0.3443348,-0.07023898
0.24514371,0.05687719,0.24480468,0.033891607,0.09515651,-0.7330917,-0.29222113,0.10592446,-0.018312663,-0.35593182,0.014149673,-0.08310869
0.22064385,0.080539845,0.26346987,0.019409193,0.06576329,-0.31994268,-0.21154867,0.0150013715,-0.01894641,-0.07095975,0.072498254,-0.036805958
0.17342517,0.09340098,0.22502124,-0.0066024093,-0.13383994,-0.5911635,-0.18835387,0.18611512,-0.33733165,-0.7871176,0.026203148,0.3833454
0.1960485,0.066995755,0.26197654,0.16982163,0.076656036,-0.90455663,-0.26708952,-0.00026476383,-0.15535614,-0.48629802,0.30944434,-0.15588689
0.1665043,0.13830893,0.23746908,-0.0033954312,0.033469133,0.112589985,0.07493302,0.13594404,-0.23059511,0.006869912,0.12828346,0.030771881
0.19265833,0.09129121,0.24413675,0.056497186,-0.047591187,-1.1569489,-0.16316925,0.103878185,-0.18547747,-0.9678854,0.077025265,-0.02982825
0.19986786,0.13598876,0.2647494,0.09453332,0.18048859,-0.62314427,0.08486229,0.0037676096,0.018461049,-0.6254724,0.18507542,-0.072764665
0.2926062,0.047959995,0.21076895,0.34977236,0.4285091,-0.9894851,-0.22483304,0.20659468,0.058106363,-0.73329246,0.3210604,0.07482079
0.17955571,0.11414507,0.27612856,0.14662595,0.08089704,-0.29530108,-0.01155889,-0.060877696,-0.047520965,-0.65417063,0.24006292,0.3684509
0.20965162,0.09262124,0.27371517,-0.036796387,-0.031090781,-0.86631376,-0.17316863,-0.035389915,0.024220467,-0.8745713,-0.040236846,0.18217078
0.14644243,0.14557773,0.2812791,0.04577255,-0.04541647,-0.69407177,0.14467919,-0.08524509,-0.040340453,-0.48235124,0.08349687,-0.35987043
0.14310288,0.12416861,0.25285327,0.018491324,-0.108252496,-0.5198128,-0.00042772293,0.032188773,-0.25794667,-0.15595436,0.11892484,-0.3665152
0.26831457,0.122150585,0.1982956,0.02161561,0.33434433,-0.048884075,-0.007907063,0.29104647,0.005577326,-0.43933988,0.04191208,0.40468207
0.26624253,0.10077314,0.2073504,0.05618492,0.3655744,-0.28767863,-0.08926578,0.25803265,-0.03711036,-0.13708055,0.14959948,-0.048653334
0.21784794,0.094629444,0.27373716,0.030315794,0.15620737,0.012844933,-0.14412603,-0.03932371,0.023596823,-0.041911066,0.17481013,0.20119712
0.22524507,0.1382476,0.19396658,-0.009986295,0.19612536,0.3372531,0.056432903,0.34925947,-0.16550386,-0.09578419,0.012674987,0.3757337
0.28185046,0.097304165,0.18446097,0.07167283,0.37621352,-0.40895236,-0.09420025,0.3499413,-0.027287096,-0.4959044,0.066774905,0.19999894
0.20450349,0.0952569,0.23248672,0.04964704,0.09634216,-0.53501624,-0.14155735,0.16412914,-0.21360777,-0.22948802,0.15594673,-0.16245495
0.2256017,0.0837571,0.2559804,0.13358633,0.24807072,-0.60663354,-0.166034,0.039758503,-0.055585504,-0.30181468,0.2961719,-0.12280661
0.134392,0.08945622,0.26760486,-0.05492179,-0.3007296,-1.0067157,-0.2823451,-0.097141616,-0.26353228,-0.5160873,0.065244526,-0.20580219
0.20345235,0.1433907,0.20274067,0.120932214,0.23291509,-0.56011724,0.12853444,0.30766758,-0.20525487,-0.90786237,0.18630782,0.24094537
0.30925477,0.071079075,0.18004252,0.3118379,0.5690119,-1.1562316,-0.1414778,0.3150094,0.058320343,-0.6469233,0.30310845,-0.24036911
0.18468155,0.10769256,0.23139843,0.017894523,-0.058115497,-0.709619,-0.09046775,0.1685288,-0.24080741,-0.9638313,0.028051212,0.34332708
0.18020925,0.1286982,0.20096537,-0.009558562,-0.01779897,-1.0376672,0.014764965,0.3290983,-0.33492696,-0.69286656,-0.015372362,-0.359452
0.24959223,0.16923118,0.22246014,-0.06371441,0.47857746,-0.08870752,0.17234477,0.15882406,0.1024093,-0.106030464,0.22192821,-0.16742685
0.19060944,0.07348024,0.2290207,0.03573606,0.07020684,-0.004839889,-0.28737345,0.16281292,-0.33933204,-0.05684322,0.2543721,0.3393605
0.20665045,0.14780968,0.2215203,0.19253603,0.3284726,-0.88075894,0.170562,0.20069867,-0.105831265,-0.86725104,0.31085843,-0.1406662
0.31436148,0.043126047,0.15974015,0.37392274,0.49612325,-1.5152801,-0.22532278,0.40864828,0.014784157,-0.936683,0.2595565,-0.21156923
0.19105937,0.06850733,0.23970431,0.028848879,-0.06762745,-0.36338377,-0.302877,0.11692792,-0.2577008,-0.51289344,0.097207546,0.44805512
0.15931958,0.12781382,0.25007102,0.2422737,0.10600755,-1.0838444,0.10967928,0.05638492,-0.19322164,-0.8695822,0.33155543,-0.32841617
0.20280536,0.1621299,0.21594629,-0.004844218,0.3178957,-0.28503215,0.18510392,0.23528248,-0.13729891,-0.24315631,0.22196826,-0.22511108
0.16712536,0.11514675,0.21693467,0.1803024,0.044759125,-1.1528466,0.006815493,0.22923541,-0.35209003,-0.8314643,0.2453053,-0.3352986
0.2017995,0.129321,0.24600098,0.15970357,0.24043587,-0.5166011,0.07168868,0.089419454,-0.08117145,-0.6642824,0.28124753,0.09604555
0.13295801,0.13712423,0.23175715,-0.0014313583,-0.09188183,0.6231034,0.08069995,0.13874379,-0.35779896,0.0691874,0.12788767,0.47424862
0.12757628,0.12015421,0.27145612,0.033238675,-0.18343137,-0.0006375883,-0.023021102,-0.082666405,-0.210047,-0.32426792,0.11596413,0.33818534
0.10117726,0.13789324,0.2768669,0.025668072,-0.31098458,-0.6221788,0.109717935,-0.11983116,-0.17492948,-0.4941026,-0.01944007,-0.24044763
0.17713833,0.09358891,0.22417805,-0.0053962166,-0.10674284,-0.69358456,-0.1844777,0.19389194,-0.33157444,-0.42237633,0.03481447,-0.08742526
0.13069394,0.108022116,0.24497277,0.025588704,-0.15019855,-0.039195545,-0.1182304,0.029904187,-0.37844586,-0.2099486,0.20669618,0.27958044
0.23328789,0.1263468,0.23930816,0.21730971,0.29984868,-0.72708833,0.06409258,0.10944167,0.03305182,-0.9933987,0.2712242,0.25157657
0.2111475,0.064738564,0.2275913,0.007699643,-0.027917404,-1.1171421,-0.30088997,0.19135466,-0.22863609,-0.8807694,0.02025944,0.064118445
0.21439435,0.07526426,0.20182656,0.16022345,0.17345579,-0.90430063,-0.20791379,0.31488854,-0.33384758,-0.49334788,0.25211516,-0.19021522
0.14354944,0.12418466,0.26298088,0.05687294,0.0027072374,-0.33763248,0.01657626,-0.02254019,-0.22615398,-0.22593653,0.2567134,-0.13531119
0.25794628,0.0855817,0.24841765,0.0058088154,0.1598704,-1.1584793,-0.16462468,0.077411845,0.09863567,-0.8662845,-0.026818434,-0.12890685
0.1851735,0.13508995,0.2713763,0.07106906,0.21388425,0.069590256,0.07961145,-0.03541954,-0.028321743,-0.31097525,0.28507185,0.30579886
