x,y,z,R,P,Y,t1,t2,t3,t4,t5,t6
0.025277797,0.11528616,0.14552805,-0.62589735,-1.0777707,-2.920055,-0.53313446,-0.13981788,-0.91794294,-2.0454009,0.23709527,-0.08701521
0.09608581,0.052533124,0.15306532,-0.4174307,-0.83466583,-2.917005,-0.7757469,0.25164783,-0.8396743,-2.2429504,0.4277728,0.18174022
0.17223346,0.076357245,0.2867203,0.28784823,-0.107595414,-2.281071,-0.18369395,-0.13490541,-0.036960065,-1.2167885,0.32230836,-0.92233956
0.22041549,0.097389795,0.14291976,0.28636286,0.29002187,-0.39358363,-0.0543741,0.6115982,-0.42783397,-1.1075511,0.2887309,0.83455294
0.029800298,0.13182643,0.1824463,0.35013497,0.033565495,0.3471708,0.45942503,0.25997496,-0.75488216,-0.7605727,0.48629466,0.5716583
0.10005203,0.02816857,0.17111862,0.50384414,-0.7327787,-2.0730233,-0.6330002,0.18832463,-0.7495511,-1.469578,0.759539,-0.3926518
0.08680438,0.0936932,0.2237974,-0.6321832,-0.50471276,-2.3874626,-0.76792926,-0.23667453,-0.5932788,-2.4514873,-0.056843862,1.0160158
0.1844453,-0.0029178802,0.23251642,0.13981012,-0.07576926,-1.189308,-0.6926699,0.12101859,-0.38088608,-0.5015545,0.32884666,-0.020849586
0.057257663,0.09409318,0.10599627,0.64423186,-0.8201308,-1.5107089,-0.05267197,0.63764215,-0.9295757,-2.4324892,0.7579043,0.6065642
0.15387651,0.03882402,0.22641668,-0.40713862,-0.2569929,-1.748323,-0.7404193,0.06783998,-0.47114295,-1.0646808,-0.12753558,0.13308793
-0.06433458,0.11011391,0.12731692,1.3939321,-1.3241991,9.6907206e-05,0.014972389,-0.31734812,-0.9089927,-2.4771433,0.37482342,1.1226289
0.29190704,0.079204395,0.06049184,0.68772274,0.3171471,-2.722278,-0.02921164,0.79686517,-0.08644158,-1.9390694,0.68985903,-0.4034
0.04378293,0.10497167,0.16914041,-0.9716255,-1.0769328,-2.5910563,-0.6959784,-0.22441223,-0.7537393,-2.4128501,0.40781483,0.9695012
0.17338187,0.134168,0.19411954,0.6871356,0.13954537,-2.2306464,0.2624697,0.28759634,-0.20337552,-1.7144238,0.7068255,-0.6980016
0.013852846,0.12909783,0.23188448,-0.0049067205,-0.735795,-1.5672772,0.05763352,-0.16859028,-0.52855337,-0.8436321,-0.056641556,-0.76389986
0.34266084,-0.118359596,0.05799365,1.092355,0.7702266,-0.2540036,-0.67400265,0.66645265,0.016350985,-0.12058091,0.5537634,1.0507476
0.22225633,-0.04155384,0.24640027,0.442989,0.05152656,-2.2635374,-0.6737559,0.06391403,-0.13684112,-0.6822132,0.50020564,-0.90762925
0.03111618,0.12845328,0.12969977,-0.6942382,-0.86035806,-1.9747792,-0.4195799,0.051574886,-1.0216004,-0.7734567,-0.10359086,-0.41382837
0.29590318,0.20548639,0.06236255,-0.26756024,0.75625294,-1.0956824,0.24807924,0.706839,0.074858665,-2.1368628,-0.021249875,0.67887014
0.29326344,-0.07515381,0.04606647,0.99848,0.8634426,-1.818745,-0.693069,0.9021097,-0.4137925,0.09880662,0.72446394,-0.7527664
0.19380882,0.091505624,0.2935275,0.22892363,-0.18002807,-1.6587868,-0.09876865,-0.1454982,0.14847481,-2.1562939,0.29188755,0.5758882
0.06770602,0.11905947,0.2755234,0.41166717,-0.51499856,-1.4464633,0.1449064,-0.19031563,-0.18159133,-2.2281113,0.35271192,0.4727071
0.1723101,0.026127987,0.16239764,-0.14216098,-0.15834558,-1.3366789,-0.65994203,0.5038476,-0.6855042,-0.42916608,-0.033316657,-0.23500836
0.15575771,0.14956348,0.061310783,0.25160682,0.9747535,0.6408765,0.26837224,1.0225847,-0.80763125,-0.513942,0.8044864,1.0673139
0.32863912,0.00065748394,-0.022601165,0.67382395,0.4842863,-2.2561014,-0.3105243,1.0435617,-0.00013315678,-2.217518,0.50134563,0.6595021
0.02683013,0.10825004,0.21375066,0.31595972,-0.9981992,-1.858574,-0.08614302,-0.12937297,-0.5370971,-2.5104246,0.41894707,0.4724744
0.24451739,0.26122436,0.038779598,-0.46082655,0.72967494,-1.9817904,0.46017426,0.79707044,0.041387916,-2.521798,-0.001608029,-0.09929454
0.13555567,0.14564255,0.26632878,-0.00655049,-0.015646404,-0.6062808,0.13582033,-0.025954634,-0.17436755,0.04658723,0.18590337,-0.7877726
0.12283759,0.13337241,0.22897011,-0.030049896,-0.27347875,-0.5095607,0.042973936,0.13670453,-0.37578422,-0.8864732,-0.052298717,0.34295183
0.085053906,0.124739446,0.15716696,-0.0028378272,-0.32441974,1.0319934,-0.007932842,0.4648677,-0.8161175,0.0060067177,0.026818603,1.0344124
0.24139987,0.07878884,0.107899815,0.24811578,0.82291484,0.55410653,-0.19468558,0.7333986,-0.58162445,-0.034231663,0.69926286,0.8936961
0.36150357,-0.06417959,0.1270609,0.6281583,0.7907604,-0.33487093,-0.5238431,0.415403,0.17753077,-0.0062761307,0.37251487,0.46551377
0.14616187,0.010618227,0.13280565,-0.030993218,-0.38247547,-2.1834264,-0.7772919,0.6574553,-0.8464253,-1.9879303,0.26705506,0.5644006
0.0038856305,0.1324683,0.14940396,0.17967083,-0.52869487,0.3854116,0.29867393,0.36968237,-0.9216909,-0.2559657,-0.0037460774,0.2942168
0.30264807,0.1658476,0.08931938,-0.040217716,0.7046153,-0.22584696,0.14144021,0.65015227,0.021508455,-1.092098,0.0687626,0.7314531
0.24085402,0.09866917,0.1388245,0.016504789,0.27414107,-0.7466378,-0.11839956,0.6332984,-0.36359316,-1.8390025,-0.01680331,1.2108419
-0.06345409,0.09784842,0.18028113,0.72436154,-0.7912112,-0.31563786,0.37070554,-0.18043755,-0.77771515,-1.8336177,0.18385589,0.73982686
0.14558253,0.051882166,0.1677698,-0.006079189,-0.43563396,-2.2452533,-0.48070022,0.43417996,-0.6708911,-2.250053,0.24701527,0.46366125
0.27350092,-6.0684513e-05,0.1487746,0.12387545,0.29089928,-2.378141,-0.4840408,0.5634109,-0.27258253,-2.2543924,-0.037028365,0.37424892
0.010003798,0.103285454,0.17990106,0.60278034,-0.7804548,-1.8689238,0.059296787,0.01899305,-0.7458856,-1.9738009,0.40263888,-0.3557911
0.3039308,0.12726426,0.07604921,0.17683001,1.1267998,-0.7247332,0.026829183,0.6995235,-0.17700887,-0.17341852,0.6164601,-0.43420368
0.13641335,0.02710681,0.11432098,0.2575216,-0.5520116,-1.8327353,-0.56507117,0.75752884,-0.8478191,-2.0670202,0.5557544,0.70324033
-0.013743728,0.099839486,0.13213407,0.89405024,-1.166461,-1.1916771,-0.18094265,-0.10459654,-0.9397335,-1.9997908,0.5394846,0.06894487
0.16811183,0.09980534,0.18978484,0.52256083,-0.3458045,-2.2212794,0.022099197,0.32735503,-0.2882797,-2.2602339,0.6418637,-0.06649244
0.23471692,0.079159796,0.2749763,0.4256678,0.5332221,-0.85818934,-0.12082964,-0.109728545,0.08324468,-0.47445893,0.69265556,-0.14934242
0.04438565,0.13145001,0.22328636,0.14925747,-0.3818279,-0.46107712,0.18395424,0.027800232,-0.563851,-0.4726038,0.1488514,-0.21963465
0.25004983,0.1269478,0.21917953,0.0053788726,0.2571458,0.67234904,0.008012176,0.20991433,0.007779002,-0.18173146,0.040066898,0.8475569
0.28793576,0.19136252,-0.033469595,0.6313105,0.70647013,-2.3880987,0.33871728,0.92041224,0.23484814,-2.1012247,0.834479,0.0422737
-0.00082407147,0.11164452,0.19945079,0.18981184,-0.5432273,-1.2671535,-0.15663344,-0.2819604,-0.79408044,-0.44057226,0.598222,-0.8573063
0.077285156,0.17384939,0.30001384,0.05782311,-0.118367575,-0.03346804,0.43390936,-0.19516452,-0.0032230616,-0.036280394,0.06677678,-0.4347645
0.19021691,-0.023426173,0.08396576,0.3695575,-0.021131227,-1.2899493,-0.7162734,1.0326588,-0.79248655,-1.5950409,0.29040122,1.0526762
0.324848,0.1486665,0.037319817,0.862648,0.79378563,-2.883684,0.19323808,0.6787272,0.1988138,-1.5237865,0.7212367,-0.8192165
-0.00795098,0.12615378,0.16112548,-0.06992094,-0.80806214,-0.6651918,-0.06856781,-0.055248976,-0.92755777,-0.008023739,0.17241833,-0.55940485
0.06597659,0.07574009,0.16635466,0.27250716,-0.6866415,-0.71157813,-0.43431386,0.12788,-0.86618596,-1.2711626,0.49704322,0.7141295
0.25759894,0.0067412592,0.10045998,0.7416765,0.10772632,-2.4577618,-0.31835762,0.73508674,-0.33440363,-1.5680388,0.64877355,-0.3930627
0.16346428,0.08869089,0.21082152,-0.11325282,-0.21681024,-1.5507975,-0.26619208,0.24057192,-0.43975085,-0.89619815,-0.063926384,-0.3710686
0.23624943,-0.06165097,0.060287885,0.43125564,0.021539262,-2.821889,-0.7046598,1.0393565,-0.4936689,-2.2092988,0.38884524,0.18241102
0.08546984,0.06354165,0.16700885,-0.053993087,-1.0370712,-1.5849936,-0.54391307,0.1721457,-0.71811,-2.3011608,0.6022819,1.1535809
0.18078183,0.06967003,0.15153107,0.09482802,0.28818935,-0.5933652,-0.34010872,0.55794394,-0.73786557,0.019882202,0.48284343,-0.258505
0.21114698,0.042931277,0.17293712,0.5775938,-0.3505234,-2.5221677,-0.22421622,0.3996213,-0.24669468,-2.1012886,0.7317258,-0.25190413
0.2368836,0.014324823,0.13237478,0.4120734,0.38826978,-0.7015895,-0.44274563,0.65794194,-0.5436933,-0.40683627,0.45180103,0.24065906
0.00072989985,0.109357476,0.20406023,0.24787144,-0.3916366,0.28015038,-0.08293247,-0.27224126,-0.7873385,-0.40280056,0.7170471,0.5735695
0.07053563,0.112352915,0.23059186,0.28466704,-0.46420196,-1.7550255,0.02876079,0.0031415224,-0.48169523,-1.6063316,0.24060604,-0.30415922
0.21396916,0.104179114,0.27273083,0.730981,0.21880262,-1.2554824,0.09741789,-0.11618936,0.21194756,-1.4482851,0.74064374,0.21640939
-0.050662447,0.06614131,0.17694253,1.2338071,-0.3304944,-0.7729726,0.36897284,-0.2948672,-0.73405737,-1.6463873,0.8003695,-0.20740545
0.16754688,-0.0047338554,0.30717838,-0.08110651,-0.42622405,-3.0524251,-0.75127965,-0.25894314,0.057664394,-2.1935964,0.28489637,-0.113714814
0.16953331,0.09578903,0.10176109,0.07458307,0.5970417,-0.67600423,-0.20990282,0.8489762,-0.92912287,0.090468645,0.68090117,-0.53107935
0.15581386,0.030306384,0.12646341,0.5233157,0.09662328,-0.39531428,-0.49333847,0.64873296,-0.90625674,-0.6377609,0.7196125,0.7058775
0.32804677,0.119596235,0.09096894,0.30082136,0.4900049,-3.0874407,0.03592682,0.59907025,0.16607475,-2.3053422,0.3842136,-0.6320066
0.1526939,0.090768725,0.11002725,0.2550823,0.188839,0.1607349,-0.14234364,0.85615915,-0.8612047,-0.7694936,0.3197516,1.0962934
-0.030578122,0.12112105,0.1575864,0.16291237,-0.9562894,-0.02532867,0.06523579,-0.07276264,-0.90688217,-1.2215434,0.042636752,1.0251324
0.12219695,0.123451486,0.18819721,0.06543731,-0.22727147,-1.4021313,0.0152541995,0.3519426,-0.5732516,-1.6920378,0.060747758,0.26047665
0.07972896,0.121795736,0.17691627,0.023892943,-0.407908,-1.4565117,-0.021349132,0.31679523,-0.74093,-1.070212,0.034651592,-0.37642676
0.30636328,-0.014512174,0.14756277,0.22478655,0.31901646,-2.9913404,-0.45686394,0.50494516,-0.06335038,-2.403624,0.07675673,-0.08301753
0.20384371,0.12864113,0.15974951,-0.04478448,0.1301939,-0.32661736,0.002157569,0.5447596,-0.39708972,-1.1983243,-0.04737541,0.8633668
0.34866107,0.123444736,-0.023155715,-0.0010607764,1.2222797,0.54711187,-0.006855786,0.92572993,0.067712784,0.029994965,0.22892809,0.5192433
0.18809275,0.005161021,0.07451601,0.67946655,-0.16101232,-2.1958947,-0.44401988,1.0021873,-0.71238977,-1.732837,0.6910192,0.026657343
0.24221173,-0.01397638,0.10628041,0.3060738,0.28359586,-0.23911378,-0.57313573,0.8256909,-0.5464311,-0.6330763,0.15497908,1.0241561
-0.039994236,0.093731165,0.11930152,1.511678,-0.9384711,-0.83728975,0.22458845,0.022263587,-0.913184,-2.5180137,0.7441342,0.30953592
0.10541166,0.102314085,0.21309116,-0.102077626,-0.12892054,-1.0253063,-0.30277732,0.056348562,-0.667462,0.1310823,0.46082547,-0.82899594
0.27269188,0.1686067,0.108556345,0.5530264,0.69785225,-2.239025,0.2695542,0.56090546,0.0099749565,-1.4310431,0.5999,-0.69022655
0.16480611,0.12792397,0.30476546,-0.04846893,-0.09368644,-2.6126392,-0.0031610727,-0.1997296,0.09643793,-1.7630728,-0.048861027,-0.8416537
0.3275004,0.15889269,-0.022483591,-0.19779736,1.0720061,-0.36136082,0.09870803,0.95722276,0.058104992,0.10385585,0.06761967,-0.68564206
0.16699383,0.11673025,0.16207205,0.3919347,-0.3075909,-1.1374917,0.0755142,0.49466485,-0.37015098,-2.4792638,0.5861567,1.2275271
0.25842267,0.09090732,0.115841255,0.102339104,0.38105503,-1.0670981,-0.124785304,0.72200793,-0.33999765,-1.3822129,0.048690304,0.46891242
0.3216729,-0.015379559,0.019524187,0.51721454,0.8218449,-1.1492032,-0.45126954,0.9960088,-0.23423982,0.093858,0.17638215,-0.5691564
0.17307411,0.19152582,0.2640561,0.055485625,0.17138265,-1.1626511,0.359734,0.005084574,0.11897683,-1.4140631,0.11280185,-0.09662312
0.15408729,0.06436779,0.119707994,-0.0026274477,-0.07682196,-0.31222725,-0.4366235,0.7974878,-0.8820705,-1.1398329,0.03311412,1.2630572
0.17480886,0.16938725,0.08429636,-0.16298887,0.36861774,-2.325912,0.20556402,0.9625785,-0.59716046,-1.9459391,-0.08029599,-0.6298365
0.17229486,0.101341724,0.3027193,0.35201257,-0.3835704,-1.9779842,-0.019269884,-0.21899275,0.2348913,-2.4335227,0.52662086,0.40855318
0.06453593,0.15423805,0.107777946,0.0507755,0.12509125,-0.6638386,0.37824947,0.88889295,-0.93530804,-0.57528913,0.1715374,-0.46578637
0.13966392,0.1562181,0.22550848,0.009973288,0.09819073,0.16304351,0.21113843,0.18695128,-0.32762456,-0.12944746,0.23653728,0.0796991
0.26101357,-0.02730139,0.24693777,0.24913992,0.2929612,0.1951457,-0.59295106,0.07516262,-0.009239554,-0.110666275,0.31664836,0.9368766
0.2762418,-0.10460766,0.011972271,0.9193188,0.14593767,-2.3684382,-0.6800073,1.0370138,-0.24829006,-1.5655777,0.5472113,0.18215746
0.2878884,0.06310753,0.1751638,0.29787743,0.35565037,-0.9025056,-0.1741066,0.38447487,-0.049008608,-1.2337887,0.2250993,0.5956611
0.2813668,0.02794781,0.051497836,0.2804206,0.503375,-1.9583184,-0.34415933,1.0042629,-0.38006812,-2.2882047,0.086976126,0.76756185
0.18799281,0.08153824,0.12812085,-0.07316532,0.1293217,3.0431666,-0.29174504,0.74679464,-0.7032396,-2.0802276,-0.12231648,-0.875116
0.17542446,0.04896849,0.2757355,-0.016761236,0.04649754,-0.3672633,-0.5052409,-0.113257885,-0.22118574,0.10322142,0.3688328,0.040658057
0.20290612,-0.06491506,0.061824914,0.82202476,-0.17991948,-1.9586581,-0.71145785,1.0143151,-0.63729334,-1.4731274,0.7286781,0.29293436
0.18673328,0.08746177,0.096574575,0.014279696,0.19249074,-1.5391991,-0.2271558,0.95885295,-0.75463736,-1.1427743,-0.03235127,-0.17090434
0.31078452,-0.02053507,0.1316505,0.62327,0.5218172,-1.7010267,-0.42396942,0.52817845,-0.11613572,-0.66728175,0.42675665,-0.38008595
0.14165209,0.09140633,0.12813303,0.84364736,0.12768722,-0.3422536,0.093392015,0.6076056,-0.6718769,-1.4382976,0.8575865,1.0309391
0.24826598,-0.04777862,0.23605062,0.62216663,0.47342148,-0.07213206,-0.67465603,0.059096366,-0.13015842,-0.16336083,0.8323622,0.9156664
0.2960173,-0.047965996,0.1390607,0.2428309,0.3326392,-3.128836,-0.5904398,0.560955,-0.14284796,-2.4804208,0.0114005655,-0.015531719
0.24566856,0.038787298,0.2699377,0.42681235,0.103392385,-2.048059,-0.2654969,-0.046138197,0.13771284,-1.2477157,0.4011247,-0.49470368
0.09993966,0.083984315,0.13307819,0.03786973,-0.65520483,2.9312153,-0.32249674,0.5673539,-0.8647691,-2.5228906,0.39202836,-0.554813
0.32232282,0.13227454,0.07418038,0.042823836,0.7844775,-0.96231604,0.031476438,0.697391,0.00841105,-0.5924462,0.09419078,-0.3639601
0.043338843,0.11741257,0.2776798,0.16488887,-0.3615031,-1.3014395,0.026122034,-0.2944485,-0.33092558,-0.522902,0.29301015,-0.8806076
0.32734686,0.01200011,0.15964898,0.5499936,0.41498137,-1.9660097,-0.28463256,0.36828494,0.11882424,-1.301492,0.36697415,-0.17128474
0.16009437,0.08282861,0.13010491,-0.008355826,0.020371243,-0.56571203,-0.29881316,0.72865576,-0.8084161,0.14371157,0.09777233,-0.41013747
0.14696169,0.10229377,0.09842269,0.673289,0.3256754,-0.63983047,0.10759449,0.84418327,-0.7761502,-1.2541595,0.71318936,0.64578897
0.28013095,0.19134268,0.06888391,-0.14597999,0.67225224,-0.9760724,0.22644526,0.7519266,-0.036215544,-2.3862102,0.042181373,1.1433637
0.2505796,0.13204822,0.11026198,0.7895134,0.75189304,-2.2372284,0.17921543,0.600719,-0.23302072,-1.0578232,0.81162333,-0.88798475
0.04078501,0.12935962,0.1454159,-0.84190065,-0.7301245,-0.29080752,-0.67635566,-0.23086035,-0.96320474,0.11164713,0.14351445,0.62322825
0.32518056,-0.106214486,0.16082685,0.8711624,0.65765846,-1.6925375,-0.67257893,0.30751067,0.09615362,-0.15696096,0.6357076,-0.52548194
0.1502051,0.13850217,0.30054742,0.24260567,0.20191745,0.37701783,0.1858657,-0.19802609,0.060065866,-0.7589818,0.40058115,0.9557207
0.1071283,0.12528107,0.12218498,0.08310934,0.4674843,0.20841675,0.055867672,0.64913714,-0.9944866,-0.13673353,0.81456804,0.2899925
0.2723556,-0.04621238,0.064212024,0.47244763,0.43574506,-0.6410413,-0.615351,0.96052843,-0.4321667,-0.7687657,0.13449255,0.87522477
0.3415657,-0.07813729,-0.02127434,1.1807073,0.57841694,-2.7003822,-0.513118,0.94209117,0.01888597,-1.05666,0.48549935,-0.49813926
0.09766628,0.038641132,0.15607342,0.15314195,-0.5716308,-2.3414567,-0.76850384,0.24324638,-0.9292,-1.0093882,0.5861715,-0.78076386
0.23835562,0.03898036,0.09547831,0.17065054,0.4366275,0.27468506,-0.3894222,0.89373,-0.60720205,0.10126352,0.18083423,0.598111
0.29462352,-0.14600743,0.12237004,1.0857197,-0.11332256,-1.5252143,-0.6998475,0.41695023,0.15397382,-1.3680257,0.8645102,0.74525183
0.017902315,0.12514153,0.13308895,-0.0224409,-0.71812177,-0.6081919,-0.022853315,0.33443993,-1.0222768,-0.060698986,-0.0306274,-0.51554745
0.18406762,0.05976527,0.29311246,0.6882793,-0.11715666,-1.3948635,-0.1390385,-0.20994726,0.13580227,-1.5262551,0.69658613,0.20150954
0.24283712,0.10661657,0.08912046,0.054901678,0.4280496,-2.4652815,-0.07356197,0.8779512,-0.44525224,-1.6619724,0.019361988,-0.7135739
-0.01862869,0.0844733,0.10272318,1.3202112,-0.6339519,-1.3583863,0.24557632,0.2594638,-1.0172248,-2.1690414,0.83599913,-0.255377
0.20227742,0.12643006,0.17887779,0.3634842,0.12133886,-1.8853205,0.11561102,0.4148969,-0.25525773,-1.7577958,0.38007835,-0.19066232
0.17682594,0.02138802,0.24739063,0.31024697,0.13037829,-1.7738804,-0.57204163,-0.009789765,-0.37416083,-0.29453993,0.6870769,-0.9247284
0.2423204,-0.08996468,0.16595368,0.44116715,-0.10668105,3.1268132,-0.757636,0.45932013,-0.21189171,-1.603071,0.39174762,-0.7703366
0.28300568,0.019558147,0.15419587,0.6316125,0.37889248,-1.4594456,-0.28601208,0.45960635,-0.16462433,-1.0021684,0.5244312,0.022522867
0.18366328,0.11364362,0.2278425,0.30978036,0.25163487,-0.037913654,0.041003644,0.15921998,-0.2559663,-0.75451005,0.46184686,0.69962317
0.08399716,0.12766664,0.20875737,0.2700617,-0.018432993,-1.2704931,0.19465715,0.17557698,-0.5872327,-0.67622316,0.42515942,-0.8459099
0.25436595,0.17017308,0.16452236,0.4352793,0.844671,-0.88901657,0.27224225,0.3436852,-0.013098359,-0.8487357,0.6780368,-0.02262479
0.16065569,0.036293875,0.17525846,0.05149992,0.1400409,-1.1855955,-0.671635,0.3291452,-0.7935066,0.08234668,0.60756576,-0.5813397
0.06743899,0.11879701,0.116400376,0.4478383,-0.49133143,-1.5210254,0.16249049,0.7250151,-0.84834456,-2.5268795,0.54795253,0.7089836
0.26427424,0.14689597,0.22045907,0.0074663134,0.4778038,-0.6057843,0.09077817,0.16689113,0.10563123,-0.23526669,0.20866457,-0.45268917
0.030633053,0.11018103,0.22909231,0.7573408,-0.07915538,-0.6863144,0.42392343,-0.050757617,-0.46581495,-1.4862175,0.6357943,0.17291313
0.072015345,0.17966425,0.2984197,0.051787082,-0.16815148,-1.8397907,0.4715609,-0.18389513,0.009382963,-1.6129117,-0.030595817,-0.700131
0.26566353,0.013841275,0.21698818,0.39195818,-0.2287699,-1.8129616,-0.32684827,0.18016642,0.12388098,-2.2739754,0.59121966,0.8113194
-0.055267114,0.08924648,0.11499462,1.5017807,-0.9613244,-0.774989,0.0744347,-0.22491452,-0.9703917,-2.0721784,0.6185901,-0.102825224
0.08083461,0.06387543,0.12103431,-0.11234512,-0.9836247,-2.6428778,-0.6058342,0.4371727,-0.9600245,-2.2601318,0.5801908,0.15364128
0.15836078,0.080517374,0.11585566,0.106077194,0.3898563,-0.9388701,-0.32846946,0.7610188,-0.9608233,0.052779436,0.60272133,-0.6390296
0.21347085,0.0011464227,0.28177437,0.34951097,-0.17528234,-1.4853075,-0.48903975,-0.099557266,0.06672108,-1.4792953,0.39107737,0.44552797
0.11031794,0.15876083,0.08949697,0.39043066,0.5852499,-0.98661244,0.47021443,0.91715425,-0.75717384,-1.1770519,0.615386,-0.11326665
0.29173556,0.07333483,0.072170705,0.25720632,0.46087897,-2.093409,-0.14679825,0.84477645,-0.21724486,-2.2348347,0.2050317,0.40038854
0.20900635,0.024458516,0.30100513,0.18221179,0.3212479,0.18325981,-0.5255535,-0.22462705,0.0029306412,0.017411232,0.5894067,0.7221418
0.08531756,0.08009626,0.08851804,0.8426048,-0.250513,-0.7266056,0.0060324073,0.85490364,-0.9717772,-1.8091928,0.8369057,0.91295475
0.07917251,0.1213553,0.14671382,0.0069031753,0.00026985744,-0.34931472,-0.04729873,0.44723713,-0.97937185,-0.013550997,0.5327709,-0.29033995
0.26181194,0.05380484,0.24645427,-0.018794436,0.1439909,-1.4467784,-0.30198714,0.09066415,0.0627681,-1.2319688,-0.064121924,0.081175625
0.34725118,-0.09377198,0.10482872,0.703708,0.81239253,-1.6593121,-0.63324124,0.5264635,0.059847355,0.16841435,0.43637487,-0.90527344
0.23472977,0.02030946,0.30044907,0.10190543,-0.029527834,-1.0735104,-0.44199374,-0.16792956,0.21699822,-1.867707,0.10954392,1.2372565
0.1855756,0.025501909,0.08366282,0.26746732,-0.39735287,-1.9324924,-0.4331579,0.96937484,-0.6383713,-2.5100555,0.7072966,1.0258904
0.16139273,0.05561771,0.1867473,0.23413235,-0.060758885,-1.0097318,-0.37062225,0.34287578,-0.6180439,-0.6868056,0.38450655,0.007070303
0.19400337,-0.05364869,0.28092295,0.67812884,-0.4075213,-0.6843695,-0.68477815,-0.16385445,0.10460985,-1.4288965,0.780836,1.2597122
0.08204542,0.13024111,0.0719375,0.7877593,0.19958057,-0.40603805,0.45997316,1.0157826,-0.8161159,-1.9281411,0.8608893,1.2300622
-0.019023038,0.0836772,0.11562776,1.2328486,-0.73031133,0.16752945,0.09821713,0.081227064,-1.0035479,-1.9405527,0.7477392,1.0946076
0.20902775,0.034974042,0.10508634,0.45543557,0.23050265,-2.094064,-0.351875,0.8455818,-0.6765641,-0.9950285,0.39560965,-0.6647741
0.2260313,0.22268566,0.06974303,0.10630913,0.83664054,-1.2818886,0.4552675,0.76599735,-0.13129234,-1.280133,0.4195715,-0.2731976
0.24611239,0.018106464,0.050297678,0.9053067,0.1712695,-1.8216391,-0.25927985,0.97177714,-0.44353306,-1.560492,0.783183,0.30424184
0.05094841,0.13848819,0.2680413,0.06995234,-0.48934188,0.4354185,0.18228275,-0.16061617,-0.2883469,-0.5052061,-0.050719187,0.7465046
0.18803497,-0.028012587,0.2596681,0.2821,-0.09912847,-2.2315269,-0.7538282,-0.014898598,-0.21690571,-0.6794709,0.4435945,-0.84464693
0.16572712,0.11709539,0.24964926,0.5559227,0.04349899,-1.3332692,0.14525622,0.03248772,-0.092377424,-1.5375386,0.5565525,0.05432719
0.3643147,0.06516919,0.09927636,0.58101624,1.1450152,-0.979134,-0.15319014,0.47798437,0.1343354,-0.14909887,0.609854,-0.26335573
0.17185092,0.012803234,0.24715076,0.11575564,-0.038018327,-1.7176987,-0.68138146,0.012870163,-0.38108182,-0.2782867,0.42625865,-0.78154826
0.25472465,0.054368842,0.068125986,0.6395311,0.15214936,-1.4872903,-0.14116317,0.8915809,-0.3267426,-1.9552561,0.65233815,0.83466107
0.25812772,0.19166544,0.025964808,-0.28828365,0.7216231,-1.3329886,0.22496647,0.9837592,-0.19960403,-1.2721136,-0.06355216,-0.42029464
0.19843362,-0.012489585,0.2407435,0.5517146,0.07466006,-1.5009178,-0.5929017,0.045582682,-0.27508104,-0.6295774,0.7280487,-0.3072244
0.1647879,0.101384714,0.28482032,-0.0876909,-0.17101157,-0.6766115,-0.17748505,-0.120197296,-0.068270564,-1.6508629,-0.05510372,1.1644492
0.0568742,0.07947093,0.15319507,0.7797635,-0.882207,-2.3673553,-0.18401712,0.21764499,-0.7740274,-2.0961814,0.7356063,-0.67127126
0.075838156,0.06639218,0.16416955,-0.33586097,-0.89079446,3.0990243,-0.77034086,0.05265981,-0.84427303,-1.7500435,0.4105896,-0.6757611
0.28650492,0.15696467,0.17715573,-0.052025657,0.45018476,1.202703,0.10723424,0.3315546,0.12093568,-0.04020953,0.0004865229,1.1237679
0.130438,0.13703673,0.08988783,0.012427141,0.754291,1.2052993,0.12786639,0.89370495,-0.9707545,-0.13079166,0.8307135,1.2087867
0.13141215,0.013700232,0.16233021,0.48604423,-0.6676671,-2.49961,-0.5873147,0.36992174,-0.67115825,-1.7118466,0.71411836,-0.48488078
0.050538,0.12638128,0.23975582,0.48330903,-0.32478413,-0.9697352,0.30993026,-0.017048001,-0.39527386,-1.7705462,0.3348665,0.34041482
0.15585394,0.091007985,0.25105533,-0.18241382,-0.23128152,-2.7613158,-0.29147705,0.015327394,-0.29086167,-1.5739052,-0.10343899,-0.86033297
0.30783263,0.13279341,0.1278683,0.21037552,0.9016559,0.6137823,0.05959785,0.48544025,-0.008608699,-0.4052291,0.46285793,1.1091964
0.23890667,-0.026959883,0.13275164,0.6951748,-0.06579818,-1.3392591,-0.4850931,0.60185087,-0.35903227,-1.4894794,0.6410445,0.69242865
0.3802408,-0.060519245,-0.051425163,1.8738143,0.9450236,-1.6507401,-0.4660957,0.8444894,0.18428504,-0.20414734,0.7297641,0.34555215
0.29048553,-0.07246429,0.04010177,0.49765983,0.34426376,3.0009055,-0.639827,0.98383266,-0.25445068,-2.3248966,0.21986327,-0.1695754
0.3208117,0.15805009,0.018623203,0.5284889,0.76248634,-0.947794,0.19077665,0.7838015,0.17981696,-1.8968868,0.5423856,1.2360892
0.07178956,0.105919115,0.25531194,-0.18559507,-0.5766878,0.25887722,-0.330091,-0.22542226,-0.41997242,-0.6103605,0.053055108,1.2444253
0.11401372,0.08034962,0.21347354,-0.13578121,-0.52083504,-3.0752864,-0.41485208,0.09387106,-0.5602449,-2.162679,0.11242704,-0.4838714
0.3526115,0.037950397,0.087626524,0.6111389,0.7977241,-0.45958728,-0.20779663,0.5932226,0.07069814,-0.74638605,0.3682422,0.8503651
0.25966012,0.03878631,0.26787415,0.72724897,0.26979452,-1.6273311,-0.1967842,-0.09767237,0.23642635,-1.113794,0.6973541,-0.1677072
0.22465141,-0.015988057,0.22253004,0.61983603,-0.14255972,-2.3543613,-0.47640914,0.15799889,-0.1310823,-1.3726066,0.62813735,-0.5424882
0.02004226,0.09865927,0.19280289,0.34711343,-0.74072933,-1.6864778,-0.21552688,-0.14220954,-0.7589251,-1.1631466,0.43822375,-0.6328719
0.0053532273,0.10682394,0.112414114,-3.1319613,-1.2864985,1.3589916,-0.5022791,-0.27346125,-0.8789073,-2.4866996,0.85535514,0.7304737
0.17289385,0.0039728973,0.1214349,0.041016057,-0.24560168,-2.664056,-0.69359785,0.78366596,-0.7608805,-2.3495617,0.26442283,0.37619525
0.1255438,0.16381697,0.16595653,0.24039198,-0.02262694,-1.7739148,0.34524196,0.50910276,-0.4573996,-2.182958,0.26749772,0.06675142
0.2370897,0.061005637,0.28313467,0.2002047,-0.0669184,-2.0083141,-0.22411424,-0.09050399,0.21095467,-2.15733,0.25281358,0.3791167
0.19877966,0.10494158,0.21274577,0.45785198,0.16107681,-1.1110375,0.037927628,0.23232907,-0.21437657,-1.2893635,0.47818884,0.18221456
0.005026657,0.12814604,0.19582877,-0.28779215,-0.82676035,-0.008797319,-0.26271832,-0.26476502,-0.7450463,-0.037425995,0.1459355,0.41539043
0.17246887,0.15704732,0.10128622,-0.011614187,0.58062637,0.13463032,0.2034204,0.8494757,-0.65154433,-0.27125812,0.38773444,0.20964462
0.28502005,0.09003624,0.10826413,0.57973087,0.73685867,-0.9023482,-0.04001522,0.6349185,-0.22401446,-0.7795564,0.5685513,0.23593193
-0.06707637,0.089348,0.15184204,0.7700231,-0.6840356,-0.6300553,0.34735984,-0.14979139,-0.9444763,-1.130671,0.3288722,-0.30820048
0.29326499,-0.11084023,0.046391517,0.649548,0.19951421,-1.7979907,-0.7021562,0.8844406,-0.13405907,-1.9820211,0.36196357,1.081804
0.11466488,0.06866481,0.13611275,-0.15549196,-0.3710574,-1.3179673,-0.5820982,0.53375024,-0.9678599,-1.0962939,0.08869478,0.37233323
0.18817449,-0.0095334435,0.12940323,-0.011196463,-0.0030095961,-2.1108432,-0.7814836,0.7415696,-0.74654603,-0.85719573,-0.0077090785,-0.47213256
0.21033931,0.20256107,0.13495499,0.04200194,0.40356332,-2.4818392,0.36470872,0.5823475,-0.15714347,-1.8857154,0.18632975,-0.9141269
0.19084494,0.02715163,0.118986815,0.42322966,-0.04511616,-0.69640994,-0.4061097,0.77292806,-0.6776315,-1.4863042,0.4073179,1.2059512
0.13893165,0.055907845,0.17547315,-0.3683747,-0.25023434,-2.6884103,-0.69949746,0.3019706,-0.7625905,-1.8499938,-0.11208698,-0.06686735
0.09893778,0.13962626,0.24087946,0.3031331,0.00249139,0.19403477,0.27789015,0.062249094,-0.3451779,-0.9869478,0.3521017,0.8617855
0.08663572,0.08294361,0.2192218,0.31242436,-0.8397621,-2.6517417,-0.24322718,0.0009979904,-0.45571917,-2.2814057,0.52281654,-0.3651991
0.24861646,0.13588528,0.23470148,0.12837633,0.86759424,0.3388404,0.07664591,0.04549879,0.029807806,-0.19765544,0.8006133,0.5257413
0.16988021,0.06179106,0.17361875,0.001353172,0.08083791,0.29178694,-0.4338447,0.42295188,-0.6929623,0.096781015,0.345445,0.6333795
0.055599745,0.086821735,0.11061342,0.55773795,-1.0278182,-2.4993403,-0.21677172,0.50368756,-0.93970776,-2.4263785,0.75880253,-0.30065244
0.32307693,0.01502818,0.18248953,0.22779717,0.4991871,-1.0980282,-0.346601,0.30940437,0.09315848,-0.16749597,0.14363465,-0.5206615
0.2863607,0.09115029,0.10882129,0.252863,0.5030691,-0.72087073,-0.08093244,0.6818194,-0.19190568,-1.3488324,0.1850566,0.819678
0.15311232,0.148931,0.25697893,0.6223086,-0.2534965,-2.7080288,0.30534512,-0.020345598,0.12615383,-2.3843486,0.7392231,-0.6831746
0.10746087,0.094841585,0.10072368,0.2997138,-0.40372443,-1.443162,-0.10548079,0.89297754,-0.8912834,-2.4333863,0.49914,1.0342062
0.0033297427,0.08519087,0.17814083,1.0450215,-0.7240419,-1.6333103,0.020058155,-0.10656573,-0.7147213,-1.8542378,0.7220274,-0.5565059
0.1958064,0.14804651,0.23046586,0.6102974,0.23422328,-0.5286951,0.28383082,0.10934588,0.04389286,-1.6634376,0.64692485,0.97611254
0.08646612,0.10286005,0.13698846,0.12744166,-0.21027401,-0.6669872,-0.16216218,0.5449089,-0.98237467,-0.5726408,0.29274023,0.01979065
0.3132391,0.079152785,0.18662938,0.40038788,0.5892876,-1.4479817,-0.09408474,0.2614389,0.13436377,-0.8377774,0.3723856,-0.3355326
0.19913168,0.14522912,0.21794283,0.016035005,0.13268979,-0.85394007,0.10520983,0.23949295,-0.16309035,-0.5038216,0.06155637,-0.45312554
-0.02352082,0.108923726,0.17096479,0.71893966,-1.1718087,-0.9664342,-0.006643057,-0.17289723,-0.7433367,-2.4677022,0.43322328,0.8713817
0.07698713,0.11469002,0.20976532,-0.06884346,-0.06633201,0.34685656,-0.22015148,-0.03459674,-0.741189,0.08183169,0.69756794,0.5086183
0.19121097,0.14658627,0.045977198,0.6326799,0.5619745,-0.75409144,0.29252726,1.0380027,-0.49119002,-1.6374886,0.68695116,0.9774285
0.011444584,0.12624037,0.26041704,0.4501642,-0.30279073,0.012407971,0.43715364,-0.1666115,-0.3558913,-1.4027221,0.2563958,0.8406008
0.029914219,0.11454261,0.19546871,0.08270931,-0.82216835,-2.1628413,-0.10384202,-0.021241516,-0.6950172,-2.218966,0.16618001,0.07325667
0.2722909,-0.07969429,0.03427067,0.8140608,0.15836394,-3.0449853,-0.6232743,0.9986287,-0.31115216,-1.585814,0.5132216,-0.58049333
0.18998976,0.19363184,0.09482886,-0.021393528,0.48859298,-0.93919754,0.35202712,0.8221155,-0.38747483,-1.3403555,0.1485726,0.07591313
0.1842431,0.08684858,0.1369906,0.09443433,-0.055199012,-2.320132,-0.18274194,0.6890215,-0.5964994,-2.468981,0.16544664,0.33375055
0.32128948,-0.05983839,0.2155103,0.31808543,0.3657151,-0.2879783,-0.5664954,0.15084192,0.25628066,-0.66314113,0.088674515,1.0123205
0.22484992,0.026082966,0.10379283,0.47207022,0.35571244,-1.9617214,-0.3850047,0.83176,-0.63955,-0.6988584,0.42329964,-0.7643633
0.1634249,0.015877655,0.1950455,0.020328011,-0.02621853,-0.062189437,-0.7528183,0.25815684,-0.66534686,-0.08356929,0.4032087,0.76717156
0.2085741,-0.07045729,0.23855071,0.78783816,-0.2871796,-1.1302259,-0.7016685,0.036331326,-0.05854392,-1.244659,0.8347224,0.68673855
0.23173678,0.07061486,0.08358361,0.75960517,0.62194556,-0.27118933,-0.10182351,0.8417472,-0.5667348,-0.83275795,0.7376847,1.0006421
0.30973583,-0.032666735,0.029684179,0.5418575,0.57004404,-0.9877999,-0.4910384,0.98748416,-0.2331118,-1.5550145,0.12877369,1.2717493
0.34094802,0.06376705,0.12022191,0.18371113,0.5540216,2.8911562,-0.17275095,0.5213195,0.1132319,-2.307256,0.08460677,-0.83925027
0.32469964,0.15980147,0.111678995,0.26866576,0.6694007,-2.6551173,0.15986013,0.47893834,0.24623728,-1.7900534,0.31702754,-0.8142812
0.10937323,0.06620416,0.17701143,0.6195713,-0.11487825,-1.2701408,-0.21549499,0.23966378,-0.7458361,-0.9710597,0.7928293,-0.28843343
0.13037226,0.05442342,0.12771037,0.2258816,-0.51131564,-2.2240858,-0.4080171,0.6694441,-0.81689256,-2.1471944,0.4616327,0.24246925
0.059983168,0.15708691,0.14559996,-0.019119497,-0.011354091,1.435151,0.35187644,0.58775955,-0.8401474,0.088727236,0.24925816,0.9974287
0.2828085,0.0003883969,0.0786165,0.31655687,0.42482367,-2.6813052,-0.43751574,0.877382,-0.3536132,-1.6399639,0.0825728,-0.51293194
0.25064385,0.1658825,0.12789512,0.21207069,0.5924299,-1.8714881,0.22138709,0.5786138,-0.14252126,-1.1924706,0.32072806,-0.76798314
0.30842394,0.19376327,-0.06382246,0.025216855,1.0238467,-0.96837467,0.25088102,1.0213876,0.20280468,-2.3200135,0.3119691,1.2650197
0.0039615557,0.11551384,0.14541955,-0.17608033,-1.0755402,-1.8102736,-0.47990024,-0.2685172,-0.954643,-1.1198528,0.37823913,-0.33261526
0.30182993,-0.1285653,0.041962124,1.2499058,0.60940635,-1.7355512,-0.7594988,0.81113464,-0.21767455,-0.25846982,0.72851014,-0.20423412
0.06812867,0.13505125,0.29704294,0.56026304,-0.10445399,-0.8904399,0.40587884,-0.24757403,-0.022126079,-1.7247868,0.46646252,0.33440036
0.20351931,0.14913374,0.064713866,0.04974042,0.83392763,-0.6674011,0.15434033,0.99137276,-0.6187227,-0.32740784,0.47425005,-0.44167757
0.16311724,0.094310775,0.14257097,0.004522504,-0.014037002,0.80581814,-0.20073473,0.65216994,-0.71006024,-0.15923452,0.04561284,1.1655464
0.30023676,0.15021026,-0.040993657,0.7366595,0.6696404,-2.741445,0.20949614,0.98791176,0.15350902,-2.032875,0.8035004,-0.22244513
0.20063654,0.07033012,0.1428433,0.12914386,0.42737612,0.54579073,-0.29712674,0.6109528,-0.6831282,0.018768787,0.5174689,0.85256547
0.07910839,0.1684558,0.11433368,-0.07571467,0.43433085,0.72991997,0.44641072,0.79465586,-0.875322,-0.2441802,0.5183468,0.5058555
0.31469288,-0.14251944,0.054757923,1.3267974,0.4830324,-2.6243286,-0.7327582,0.6809843,-0.05322194,-0.48738074,0.7762282,-0.88321733
0.17807695,0.11256037,0.22763567,0.05244411,0.47973162,-0.6883597,-0.06832129,0.11083755,-0.37879086,-0.021834612,0.75022817,-0.5875752
0.0070383754,0.12342887,0.17600678,0.3496339,-0.5059203,-0.54252803,0.293827,0.19247842,-0.7970405,-1.4748867,0.14765984,0.5014749
0.26186815,0.23832743,0.16165148,-0.55887514,0.9793128,0.9295007,0.3833031,0.27464294,0.17124212,-0.06131506,0.6330389,0.31383926
0.12672517,0.12525626,0.15275529,0.6818004,-0.4538604,-1.1136589,0.2103216,0.48562777,-0.42162538,-2.4773192,0.84808874,1.0074921
0.07557551,0.15858082,0.19662559,0.078826465,-0.22760892,1.0858486,0.3307231,0.30272293,-0.54208857,-0.5103657,-0.0014690757,1.2565632
0.22900957,-0.02737385,0.22378977,0.45452827,-0.012316537,-0.41805163,-0.5750478,0.18050456,-0.17774296,-1.0286368,0.45325276,1.1833303
0.3580383,0.092354864,0.052792266,0.60276014,0.6742763,-1.2028748,-0.015511155,0.64033014,0.25424683,-1.8127837,0.46241912,1.0551856
0.28309885,0.021278929,0.17652291,0.675167,0.1433823,-1.3255008,-0.24572098,0.33636266,-0.0018546581,-1.5364687,0.60116804,0.61179286
0.37747613,0.07618021,0.018597338,0.23890118,0.9930682,-1.0671929,-0.12899458,0.7482919,0.21079707,-0.37238646,0.05609244,-0.42517424
0.259269,-0.01897123,0.24662879,0.88809896,0.0707657,-0.9864183,-0.39280465,-0.02149573,0.16218567,-1.1970998,0.8314669,0.69573015
0.35625395,-0.021475904,0.116905406,0.343192,0.6234499,0.09722339,-0.41666085,0.5072663,0.13821709,-0.24180055,0.056541428,0.8718254
0.17954041,-0.0045389235,0.22061926,-0.13246408,-0.35369614,-2.1925404,-0.7315644,0.18567216,-0.352091,-2.4881058,0.23098978,1.038981
-0.01279638,0.14252499,0.1310687,-0.8008307,-1.0147723,-1.9098529,-0.32828927,-0.2599163,-0.9955119,-2.2020693,-0.105293855,1.1430843
0.043889627,0.1260852,0.29843056,0.2831054,-0.4123546,-0.5481343,0.20335674,-0.3178214,-0.13702703,-1.6446335,0.17100868,0.7939325
0.23299518,-0.031458452,0.19608286,0.6396798,0.099914566,-0.755042,-0.55840325,0.28882742,-0.27882457,-0.85604656,0.6397588,0.6950304
0.12217857,0.117488734,0.269482,0.15178691,-0.3178345,-1.9308406,0.008483052,-0.07590401,-0.18229431,-1.994345,0.15526304,0.012160301
0.1880025,0.22076362,0.12575176,-0.1738157,0.3728888,-0.14801109,0.41835576,0.64412844,-0.23440814,-1.6140733,0.0008365065,1.0150125
0.029007476,0.11178455,0.17914687,0.5592762,0.2303057,-0.7196797,0.4296518,0.15746272,-0.7948012,-0.8612535,0.83955,-0.42482847
0.33411,0.07646835,0.13619307,0.07208007,0.5511646,-0.6203067,-0.15343112,0.4723705,0.10385597,-0.74231243,-0.028704941,0.29009455
0.103532605,0.06924528,0.19113524,0.49020192,-0.6521389,-1.28665,-0.25119036,0.18850702,-0.58145714,-1.9229548,0.57860017,0.6053222
0.15033662,0.05171007,0.26369202,0.18806033,-0.060137995,-1.2805593,-0.46009815,-0.099675074,-0.3325473,-0.41751337,0.4985818,-0.45173815
0.20056844,0.087460995,0.15408707,0.6190375,0.21080068,-0.1873039,-0.010226071,0.5125121,-0.42979002,-1.3138918,0.62416196,1.2303658
0.033047553,0.094813235,0.20049527,0.7973473,-0.29220945,-0.098289624,0.19954914,0.010004252,-0.6359483,-1.4846818,0.66462076,0.84350187
0.07722297,0.113689765,0.19277152,0.25714782,-0.2181047,-1.4903936,0.04327798,0.213449,-0.7006502,-0.77953756,0.34646443,-0.84173393
0.1410484,0.09653929,0.1628668,0.16596575,-0.08580526,-1.6535956,-0.13244951,0.4993533,-0.69529533,-0.93299997,0.21891016,-0.61253124
0.22293338,-0.05519134,0.31539696,0.49764234,0.1848239,-0.5918925,-0.74986076,-0.29185495,0.21885371,-0.39989161,0.59471,0.5963225
0.2812148,-0.03309486,0.06174803,0.53234166,0.42375988,-2.3115113,-0.52839035,0.9388556,-0.37368774,-1.1932918,0.20832893,-0.41561157
0.0056091137,0.11874546,0.16185793,0.0645013,-0.5932324,0.48893732,-0.092026055,-0.015706092,-0.9671803,-0.26693678,0.407715,0.77544767
0.101203986,0.16662467,0.20436057,0.14489587,-0.15049385,-2.4686668,0.36013383,0.2948743,-0.39859253,-2.400744,0.11995515,-0.4432163
0.013905417,0.13636039,0.23495468,0.19571204,-0.5016008,0.42452726,0.3237993,-0.058464974,-0.49715275,-0.40335822,0.02207242,0.45133203
0.24030937,-0.054336946,0.12474776,0.5241763,0.19090845,-1.9425806,-0.6792652,0.6907255,-0.47637826,-0.7816669,0.38279298,-0.4004805
0.24845865,-0.021763865,0.2868876,0.12723514,0.19417186,0.24392132,-0.6171787,-0.10717246,0.13922119,0.051098347,0.19969264,0.8222458
0.05952536,0.06605829,0.18850575,0.22645825,-0.9492522,-1.9175156,-0.626358,-0.10622026,-0.72618675,-1.5229514,0.6226088,-0.16528988
0.083476596,0.07326786,0.18377303,-0.089626096,-1.0655348,-2.2838645,-0.4652258,0.08880597,-0.6201459,-2.471676,0.606356,0.5927667
0.1337344,0.10063379,0.1425943,-0.054458216,-0.15732402,2.8445728,-0.21302772,0.6211595,-0.8072634,-2.3908896,-0.028471708,-0.8285906
0.09692526,0.0827035,0.14948025,-0.28036252,-0.5215227,-2.9189203,-0.55927587,0.34702086,-0.9266848,-1.6269798,0.061100915,-0.6756031
0.22730586,0.12160788,0.24399677,0.85417527,0.29050806,-0.5894957,0.1882053,-0.017101437,0.22189748,-1.5509136,0.86859155,1.001488
0.23126689,-0.032812484,0.12122075,0.7643533,0.05169183,-2.2476084,-0.5330887,0.6659607,-0.47435242,-1.155023,0.67126286,-0.47656226
0.16977374,0.1732606,0.1079821,-0.047796242,0.31627506,-1.2190402,0.26361197,0.82387954,-0.5305746,-0.99178123,0.044464827,-0.49298614
0.24140356,0.051874816,0.11943963,0.6326582,0.21256976,-1.9321243,-0.16773897,0.6770572,-0.38144314,-1.4560052,0.5682869,-0.15179425
0.3805782,-0.052318834,-0.034676246,1.1551495,0.7573977,-1.2310358,-0.41114068,0.84396154,0.25981307,-1.1717215,0.3718451,1.0818384
0.1649485,-0.0057199765,0.2244291,0.40901816,-0.37993234,-0.69221294,-0.630128,0.11838788,-0.37867916,-1.3062121,0.5651946,1.0917952
0.25283507,-0.094265506,0.20702031,0.7971463,0.14868414,-0.3729306,-0.7292193,0.19640082,-0.08319414,-0.70889854,0.71917987,1.1560841
0.13361761,0.09069126,0.14119181,0.37246633,-0.26128063,-2.3753195,-0.0854013,0.6174948,-0.7060565,-1.9466319,0.41179207,-0.41006267
0.08712457,0.101555414,0.103606,0.8239499,0.13148442,-2.097386,0.2344845,0.75389594,-0.8988392,-1.4948003,0.83335257,-0.8434468
0.16010213,0.10607663,0.23217969,0.28526932,-0.1865435,-1.2793689,-0.010298431,0.1419175,-0.25391293,-1.8375247,0.29280144,0.5256068
0.05533959,0.08452926,0.13944955,0.3913433,-0.92914295,-2.2337933,-0.29188216,0.29429448,-0.8942082,-2.1065784,0.5496155,-0.1899783
0.03654603,0.14081083,0.13803136,0.10499676,-0.27857435,0.5101189,0.29232818,0.5800971,-0.9233097,-0.3554287,0.0495698,0.55550796
0.07858506,0.15705207,0.20296443,0.23528425,0.009918978,0.19877476,0.41809624,0.27225864,-0.5057356,-0.9923862,0.26221785,0.74855834
0.053234313,0.11724107,0.22931848,0.67829466,-0.18438245,-1.3689121,0.34370404,0.009518594,-0.4258582,-1.6446812,0.54731035,-0.25178307
-0.047071364,0.11162843,0.21942195,0.35162255,-0.59102315,1.3334295,0.36532277,-0.23463874,-0.6497029,-0.3156917,0.22100848,1.1446793
0.048559673,0.09121443,0.25192824,0.4751173,-0.11259807,-1.2721065,-0.108429015,-0.30153954,-0.5013195,-0.66465163,0.8516166,-0.73182976
0.19319537,0.14176817,0.22395208,0.060998492,0.27143288,0.8193395,0.109363556,0.19964433,-0.20095187,-0.32354712,0.27927673,1.0417969
0.065371186,0.0875681,0.1815418,-0.50360644,-0.8945718,-2.6147618,-0.6794754,-0.08100079,-0.7555007,-2.0320559,0.28893545,0.22325128
-0.040549275,0.09036065,0.14820395,0.68976676,-0.47166184,-0.8261448,0.2460888,-0.07951397,-1.0025511,-0.91910875,0.58511436,-0.5832163
0.2210941,-0.03262589,0.08298341,0.2662538,0.18902285,-2.8985267,-0.7180502,1.0061386,-0.67060494,-1.8171334,0.073276326,-0.32593256
0.02678677,0.091338836,0.23956448,0.62024003,-0.11296074,0.5737562,0.06822175,-0.2713541,-0.5427519,-0.8658407,0.8426564,1.0750418
0.072370216,0.11550985,0.15872799,-0.9199468,-0.54578114,-1.6908082,-0.77593464,-0.12724377,-0.8902592,-1.5348089,-0.1221783,0.9637243
0.22919744,0.17776579,0.119125105,-0.17792767,0.4183862,-0.7245099,0.19288701,0.67868584,-0.26968086,-1.9964253,-0.08887908,1.0242951
0.2408874,0.16787297,0.010333899,0.60656047,0.9074633,-0.47469684,0.29944426,1.0326574,-0.2723614,-1.3593348,0.6196557,1.1437166
0.24001956,0.04291655,0.17175794,0.43377757,0.28388125,0.074984856,-0.27035075,0.44001222,-0.34204322,-0.8240224,0.44215736,1.2486091
0.3136337,0.18246299,0.089860044,-0.06315126,0.682932,-1.9095039,0.18689829,0.589396,0.1637168,-2.3654306,0.0988805,0.27361315
0.38454783,0.015772697,-0.03501585,0.71860355,0.9520756,-2.7315044,-0.26374388,0.87543696,0.25765812,-1.6973639,0.15817583,-0.2885121
0.16771138,0.021944292,0.09039347,0.6366197,0.34794766,-0.91185504,-0.5510006,0.89274377,-1.017321,-0.41666722,0.8262843,0.14991838
0.2818759,0.10051534,0.09021217,0.10714743,0.49776727,-1.8612386,-0.07651633,0.7818542,-0.23740673,-2.1705225,0.06933798,0.4289537
-0.09471132,0.08329922,0.13907497,1.2027434,-0.94844186,-1.5453055,0.38604885,-0.27834383,-0.9025745,-2.2801614,0.2639281,-0.47151208
0.103937924,0.08783061,0.22906487,-0.13649623,-0.46284086,-1.6561,-0.40118834,-0.017142236,-0.53119606,-0.7218679,0.09437932,-0.5182119
0.17623729,0.17788854,0.2253311,-0.108562976,0.30070105,0.2165928,0.25840396,0.18954104,-0.1682905,0.08309007,0.29795653,-0.14162874
0.16308369,0.110436074,0.1695618,0.50042385,-0.06602416,-1.4493899,0.08906561,0.45531446,-0.4329859,-1.8357975,0.5098219,0.28607386
0.30925122,-0.07954961,0.13668749,0.39052272,-0.014049577,-2.4452486,-0.5860705,0.48002213,0.12326956,-2.4086144,0.50700927,0.64834267
0.17393124,0.04585834,0.1263769,0.40144777,-0.19602066,-1.9822255,-0.32106125,0.7220349,-0.6726853,-1.8202847,0.45418587,0.13015169
0.23140943,0.17507787,0.10509758,-0.2501992,0.93285125,1.1386498,0.20557672,0.68130714,-0.38085234,-0.032218218,0.6554023,0.8423243
0.10519549,0.08032604,0.16373043,-0.39225382,-0.46009025,-2.7462306,-0.6229755,0.2545277,-0.8621516,-2.1521614,-0.022863917,0.12787694
0.14765318,-0.018031595,0.18171139,0.38640562,-0.5417791,-1.5270996,-0.7548088,0.30872744,-0.5894355,-1.4498523,0.6345695,0.47746748
0.33779395,-0.09505387,0.15707824,0.6874893,0.65651214,-0.5990493,-0.63085383,0.3299908,0.14813197,-0.10910678,0.43530712,0.39594036
0.28514034,0.024774399,0.17323494,0.48792633,0.24827583,-2.0491729,-0.2774245,0.38618964,-0.0667699,-1.3741087,0.38656965,-0.27333486
0.2655509,-0.04811992,0.27526483,0.09273561,0.11092788,0.12998222,-0.6612766,-0.053589374,0.22602022,0.16434169,-0.028424934,0.632471
0.3306869,0.16043457,0.09991422,-0.046557438,0.8156374,0.61088216,0.112748325,0.5343957,0.17017984,-0.42654705,0.12170479,0.92348236
-0.055067394,0.11248604,0.15327384,0.47747844,-0.84742564,1.1952386,0.37446362,0.035533965,-0.9168826,0.14539194,-0.06162665,0.45243925
0.18619908,0.16181533,0.18473746,-0.08008155,0.6047552,0.88181955,0.19593036,0.35319626,-0.37705112,-0.07805562,0.63315654,0.73834485
0.00078070164,0.10860342,0.13761663,0.42626405,-1.1195947,-1.8210223,-0.10362756,0.08092043,-0.9267519,-2.3770008,0.4044651,0.2533415
0.22245488,-0.008092284,0.27770537,0.45283848,-0.09084746,-1.5950929,-0.49377003,-0.087570235,0.07357323,-1.2555572,0.46540317,0.13014
0.25984627,0.049005363,0.07042629,0.81946576,0.800301,-0.29181072,-0.21620047,0.8616385,-0.52572095,-0.51385117,0.772912,0.8737256
0.30219546,0.0845632,0.23211294,0.14893594,0.3929631,-0.079484865,-0.118254066,0.09540433,0.2566812,-1.0104247,0.10756858,1.0951989
0.38085285,-0.058074612,0.056865238,0.55755776,0.7848856,-0.5065317,-0.48217344,0.6283444,0.23417401,-0.06107378,0.064487234,0.27440625
0.32720596,-0.0996929,0.00018536672,0.71241593,0.45683363,2.6035178,-0.62851095,0.95745426,0.0012537241,-2.1878953,0.26700938,-0.5813555
0.18537389,0.17261998,0.2856624,0.1401604,0.109191254,-1.4143915,0.2784447,-0.10217103,0.23613334,-1.9516429,0.17701384,0.2775069
0.15835352,0.029402588,0.23254003,0.22675285,-0.51023155,-1.0404826,-0.4855653,0.08555409,-0.31810105,-1.8957715,0.43742356,1.231875
0.14014935,0.0541149,0.2669798,-0.14131567,-0.26470497,-1.1202347,-0.59372437,-0.13569827,-0.3218041,-0.20842838,0.16354579,-0.30698973
0.19628787,0.053686094,0.28132927,0.58091694,-0.20934379,-2.021121,-0.18811417,-0.13034761,0.10966015,-1.7229618,0.60994375,-0.17926991
0.106283635,0.1379251,0.30707347,0.116856635,-0.15068126,0.6095396,0.15663427,-0.250448,-0.009201765,-0.780025,0.12895426,1.2123132
0.2352495,0.22166835,-0.015614716,-0.10589899,1.234483,-1.4157252,0.43396372,1.0405989,-0.1825285,-0.8492565,0.5080892,-0.88268733
0.20481995,0.06664905,0.2078844,-0.08821728,-0.016174259,-2.383759,-0.3353595,0.28777474,-0.35018492,-1.7972664,-0.07998668,-0.24798566
0.030337552,0.15767147,0.1355037,0.07215107,-0.2177115,0.21645272,0.46295148,0.6537467,-0.86065286,-1.0359037,-0.038930014,0.78499764
0.17716223,0.035263784,0.15814738,0.09408865,0.20083061,0.16166133,-0.58755773,0.4954412,-0.7800996,0.07029104,0.50463593,0.69341964
0.36074486,0.14143439,-0.029440466,-0.17544627,1.1207051,-1.537922,0.03664148,0.87206167,0.22946846,-2.1176157,-0.050245374,0.4062224
0.18748361,0.0038876534,0.19263092,0.7613414,-0.23763373,-0.7761083,-0.42259395,0.2643237,-0.37639546,-1.377489,0.80597186,0.88178414
0.20988335,-0.02754495,0.27214605,0.52749574,-0.06988231,-1.2554595,-0.6046198,-0.07928769,-0.023492932,-0.9626541,0.5844418,0.26776165
0.30176255,0.15205078,-0.07351812,1.754228,1.1306794,-1.7131829,0.2041859,1.0422564,0.013942122,-0.9095948,0.8513261,0.7841796
0.042174872,0.102442294,0.1096967,0.6324693,-0.57308114,-2.67631,0.10295373,0.65540576,-0.9738733,-2.2425275,0.5943886,-0.8083565
0.108081296,0.1015044,0.17445326,-0.19213529,-0.4331209,-1.0949148,-0.29148695,0.3239305,-0.7412964,-0.7189226,-0.06898816,-0.032430887
0.15810122,0.16438814,0.24633569,-0.017194133,-0.024344401,-1.4404982,0.21540207,0.09944251,-0.11635584,-1.4264141,-0.02222693,-0.22909081
0.10202218,0.09941832,0.21629326,0.09319933,-0.48773286,-1.2387154,-0.16977483,0.108535916,-0.527048,-1.8839413,0.16920549,0.7573398
0.17490943,-0.010055326,0.1990442,0.6204188,-0.37854728,-0.5188996,-0.5566553,0.23830312,-0.4066828,-1.42092,0.7225964,1.2732685
0.01606346,0.11317624,0.18949823,-0.22414003,-0.982377,-1.9352076,-0.49313152,-0.32203496,-0.74691695,-1.2527055,0.3048598,-0.23669231
0.26193655,-0.027497014,0.12222627,0.2760879,0.2612447,-0.62828416,-0.5793053,0.7072255,-0.38473564,-1.032572,0.092118174,1.033015
0.22093417,0.13453268,0.22618644,0.4851503,0.14003882,-1.884183,0.1709072,0.14624077,0.06967783,-1.8359742,0.5191355,-0.12928957
0.06644803,0.09280722,0.20880309,0.08193693,-0.5662656,-1.994752,-0.34403124,-0.044372916,-0.6840006,-0.88723767,0.3228246,-0.8798859
0.20809239,0.07388768,0.22577313,-0.056114525,-0.048002366,-1.8722268,-0.27705473,0.19980353,-0.23628867,-1.0195733,-0.047864415,-0.5735071
0.12416783,0.14133811,0.26705384,0.62517565,-0.028805438,-2.1769156,0.34475726,-0.06714681,-0.011484146,-1.8592033,0.5993917,-0.6951649
0.15460393,0.09333157,0.09881333,0.056450717,0.16670233,-0.4325486,-0.21524286,0.9647761,-0.9047157,-0.16360784,0.11638765,-0.048409462
0.29588997,0.11852285,0.09514058,0.7516646,0.40193307,-1.9276688,0.11805999,0.58766824,0.07455945,-1.8127949,0.7618387,0.18484372
0.06753988,0.122265294,0.21420226,0.58177537,-0.16236968,-1.2443857,0.31078428,0.12468156,-0.48814946,-1.5830731,0.4857836,-0.11185193
