x,y,z,R,P,Y,t1,t2,t3,t4,t5,t6
-0.030328285,0.09162539,0.08853898,1.5512415,-0.83392555,-2.0241003,0.261603,0.27494648,-1.0278649,-2.5208867,0.90516704,-0.8478544
0.08333905,0.056068197,0.07314578,0.378135,-0.52368927,-0.92131037,-0.5523207,1.0565716,-1.2259173,-1.7892224,0.5794392,1.2680942
0.020018745,0.135974,0.09808632,-0.4718933,-1.3302145,-2.407323,0.04374993,0.49840686,-0.92473274,-3.3297532,0.9366297,1.2973336
-0.006673161,0.12609935,0.103302374,-0.65562254,-1.2610469,-1.7021217,-0.31857044,-0.04752794,-1.089126,-2.5610933,0.22398792,1.5804042
0.30569494,0.009245586,-0.09067301,0.739665,0.2509323,2.3651547,-0.26698458,1.2171729,0.12107849,-2.3880246,0.9696488,-0.7348298
0.14716429,0.024373477,0.086050525,0.29564166,0.28267416,-0.9449881,-0.8562374,0.9438287,-1.2366561,0.042544365,0.69854814,-0.08459067
0.16508372,0.13721311,0.2037781,0.15508695,0.026667766,-1.1756355,0.1255567,0.30940464,-0.3346957,-1.3685837,0.16047846,0.06747174
0.17615288,0.13612016,0.15937491,0.6435275,0.50475055,-0.9671973,0.2653296,0.45026955,-0.40232354,-1.1350572,0.7739102,0.0918206
0.04617501,0.13102132,0.078030914,0.52550614,0.5678019,0.021301333,0.58070636,1.0022724,-1.0260651,-1.2233639,0.761293,0.8116623
0.07142065,0.15522298,0.18405133,0.06260015,-0.031859133,1.6349279,0.34153557,0.3568491,-0.6583158,-0.19250011,0.25494152,1.4775862
-0.03107484,0.097437486,0.23745607,0.3839824,0.024981359,-0.22446416,0.3106146,-0.4210063,-0.6217593,-0.44948888,0.99401623,-0.2913769
0.37553912,0.06238322,-0.04904477,1.058772,1.064022,-2.7812462,-0.11505622,0.8930687,0.23523653,-1.0635626,0.3747388,-0.71749115
0.18282577,0.040279236,0.26491168,0.3124842,0.042975593,-1.3480989,-0.40142614,-0.051208377,-0.21207917,-0.5850344,0.5024457,-0.3913613
0.18764013,0.048565406,0.083987094,-0.16580704,-0.70540583,-1.9494234,-0.39444423,0.87654614,-0.5090488,-2.9903202,1.0833529,1.5268408
0.10788503,0.10636957,0.1743953,0.54748714,0.0028675015,-0.7886179,0.121034384,0.36265936,-0.65556335,-1.2202268,0.5830423,0.22952914
0.1987305,0.06421498,0.051798202,0.82463646,0.368397,-1.9758774,-0.1040647,1.0854361,-0.7007905,-1.32676,0.7255955,-0.23662293
0.28243136,-0.13388067,-0.066988386,1.7052699,0.16234186,-2.4793684,-0.7196123,1.1099036,-0.15237248,-0.8530493,0.9880045,-0.21607387
0.24881554,0.06953506,0.094154134,0.09179226,0.37683812,-0.7080049,-0.23509204,0.8698683,-0.47571284,-0.39263654,-0.0073907375,-0.06332576
0.0530876,0.065207824,0.07459702,0.5686604,-0.8475513,-2.832708,-0.5008725,0.7198118,-1.2330234,-1.7901816,0.7602645,-1.0124906
0.10978578,0.08064773,0.1400466,-0.2091219,-0.2321646,0.30939487,-0.58752966,0.43623498,-1.0178025,0.1496625,0.2758839,0.78363526
0.20424151,-0.08843413,0.16085471,0.7254338,0.2292302,-0.5079265,-0.9405,0.4365109,-0.5655206,-0.25908518,0.87863344,0.76387036
0.10444717,0.074775144,0.16313528,-0.46935517,-1.1339808,2.0562873,-0.4378748,0.24361524,-0.593368,-2.8558435,0.8453575,-0.679526
0.02162012,0.15441677,0.050182424,0.3053807,-0.15496235,3.0497653,0.5989679,1.3398999,-0.911948,-2.9059541,0.7452503,-0.91369605
0.20662935,0.22142212,0.07171096,-0.18465576,0.5182566,-2.6778183,0.40409565,0.85371697,-0.23978794,-2.528306,0.08370449,-0.587572
0.26477465,-0.06741662,0.13067068,0.2064115,0.23038088,0.16259749,-0.7268414,0.6532446,-0.3043611,-0.06446743,-0.040884316,0.97740996
0.20435637,-0.089766175,0.07459043,1.2359259,-0.04083884,-2.0738273,-0.7863989,0.8138231,-0.6379781,-0.88270235,1.1206324,-0.34526503
0.014424089,0.111579955,0.16226575,-0.11687665,-1.0227604,-2.973698,-0.3761766,-0.1434243,-0.8723575,-1.5331208,0.26016635,-1.1436352
0.029593669,0.13426226,0.20155379,-0.66279715,-0.68842363,-0.6780744,-0.59595346,-0.4147396,-0.70741165,0.17719007,0.20953484,0.008020997
-0.07999799,0.098859936,0.18139738,0.38789138,-0.5716158,-0.28503317,0.5482533,-0.16142222,-0.8603558,0.031113863,0.34355032,-0.9741922
0.18154985,-0.015964331,0.20697531,0.5379502,-0.727753,-0.6948259,-0.55713534,0.18105242,-0.21275115,-2.0386698,0.8600859,1.6787668
0.19248435,0.17276148,0.12831265,-0.09939493,0.6896647,0.8290137,0.24817455,0.64453506,-0.47633106,-0.16332603,0.5291766,0.7160375
0.296651,0.08181776,0.17837673,0.08983871,0.001918703,2.626093,-0.13064855,0.33530524,0.16596198,-2.9537604,0.495004,-0.5498823
0.023350563,0.12056928,0.07790144,-0.26351687,-0.7621053,-2.2063909,-0.36356252,0.5262797,-1.3281294,-1.4763288,0.06978521,-0.28982782
0.07176516,0.11118966,0.09451687,-0.04265431,-0.18878804,2.4541361,-0.24161029,0.8877027,-1.2158885,-3.173113,-0.13480705,-0.41098356
0.23592274,0.21336718,-0.064945534,-0.67928326,1.0158734,-0.8302602,0.3197776,1.2799864,-0.20541406,-2.5704815,-0.087129235,1.0033311
0.096300565,0.12733033,0.25354603,0.014299116,-0.32110745,0.37712646,0.023690343,-0.039219916,-0.34611535,-0.094934225,0.064264804,0.4448731
0.19516584,0.25856796,-0.11843766,-1.0883925,0.9862535,2.2332194,0.52587235,1.3521478,-0.06094253,0.1988306,0.021129027,0.87649834
0.030968359,0.118328534,0.10325233,-0.12361268,-0.44005647,0.6521525,-0.44837797,-0.023593724,-1.3030901,-0.1093061,0.88094205,1.1787063
0.26184934,-0.14701134,0.12228803,0.7638602,0.32339084,-0.77688146,-0.90683854,0.59713924,-0.23878217,-0.34595442,0.47106034,0.6374918
0.13103467,0.076264665,0.2808314,-0.42646155,-0.31390834,3.0193405,-0.5794854,-0.24063693,-0.23109567,-1.3943372,-0.16337393,-1.182646
0.14765596,0.13430642,0.07300338,0.9836081,0.8247787,-0.74935484,0.3488778,0.8545667,-0.7186664,-1.056879,1.115316,0.4945191
0.15721701,0.10280256,0.1280959,-0.6084694,-0.9236693,-2.8049529,-0.22576755,0.55083025,-0.45615685,-3.3150465,1.146502,1.0356666
0.34669247,-0.121175125,0.015377602,1.4542648,0.17308228,-1.0202597,-0.55077064,0.6508733,0.25739133,-1.1701689,0.93991524,1.3498946
0.14614916,0.24194965,-0.03267924,-0.31558797,0.4081008,-3.032928,0.5600904,1.3237616,-0.27949476,-3.201436,0.5354791,-0.4737211
0.21954022,-0.057461374,0.06761335,0.45532495,0.3065322,-1.3057628,-0.8195771,1.0846521,-0.72374207,-0.35500526,0.18990831,-0.047353268
0.21710914,-0.2059845,-0.19316673,1.3515196,-0.26392603,2.0929158,-1.0312724,1.3614471,0.28626776,-1.924278,0.8549382,-0.69536024
-0.062215395,0.08041039,0.079080865,0.92925113,-0.57186735,-1.3626797,0.34170508,0.1900514,-1.2879782,-1.3266582,0.48617852,-0.9524201
-0.081373155,0.06424962,0.081092805,1.2035011,-0.5311405,0.48220733,0.39229035,-0.17159036,-1.2284923,-1.2654574,0.6145832,0.5225694
0.24947076,0.008228779,0.123794176,0.96169114,0.80199134,-1.8249317,-0.43021291,0.54120886,-0.53893006,-0.24071693,1.1594748,-0.71829885
0.061590306,0.09684515,0.09292144,0.8789176,-1.0799631,-0.865276,-0.04801762,0.6522672,-0.8607267,-2.6641402,1.0782,1.2366661
-0.02483948,0.12335185,0.07612007,0.08372904,-0.6383964,-0.6129516,0.1106683,0.73103774,-1.3495911,0.038104534,-0.024566293,-0.7897115
0.09165378,0.13405126,0.23636,1.0675169,0.30871725,-1.525307,0.5262089,-0.04534003,-0.14637566,-1.6461738,1.0691254,-0.33584893
0.11589221,0.08223863,0.2813946,-0.2609446,-0.43154693,-1.4248891,-0.47865814,-0.24629937,-0.2382834,-0.78950596,-0.021621943,-0.0954175
0.13570066,0.20612216,0.15119398,0.32787704,0.41671017,-0.27121633,0.59098923,0.5308784,-0.28711915,-1.6599122,0.4914726,0.92863786
0.10912529,0.19883063,0.030816313,-0.16513962,0.86583626,0.9141189,0.5924791,1.2345518,-0.73385125,-0.843977,0.46775877,1.183982
0.13132766,0.040174868,0.22789037,-0.33144075,-0.34128374,0.19855124,-0.8168241,-0.013764769,-0.54144996,-0.38116384,0.09174104,1.4445497
0.2154071,0.07440801,0.23648462,0.535425,-0.37619096,-2.6553233,-0.089235306,0.07885566,0.08771896,-2.3002539,0.7448679,-0.322577
0.128624,0.14856538,0.14675763,-0.10040361,-0.9464051,-1.533815,0.103797674,0.47581884,-0.3702653,-3.306053,1.0540625,1.7101094
0.041891657,0.12341981,0.25659347,1.0519238,-0.5271754,-0.7959324,0.4250815,-0.17697763,-0.09506154,-2.490043,0.9031721,0.8732921
-0.033504963,0.120815545,0.06622209,3.0472732,-0.8010202,1.5936365,-0.14716166,-0.33135074,-0.98191154,-2.9437099,1.0459138,1.4578136
0.19693583,-0.04913886,0.09073001,-0.3870974,-0.5431333,-2.5920668,-0.8439573,0.8376399,-0.45393193,-2.9400537,1.0284747,1.3406507
0.1555164,0.22924781,0.082958475,-0.3046725,0.40817013,-2.2136376,0.49055147,0.8832338,-0.40909642,-2.023016,-0.062152088,-0.7582568
0.21939054,0.09530537,0.18446203,-0.098739564,0.0606181,-2.3562226,-0.17589086,0.41372374,-0.32282257,-1.1514394,-0.11795066,-1.0367886
0.27178925,0.1337381,0.2062472,0.12549798,0.31524372,-1.9522942,0.062011123,0.23388395,0.1184386,-1.8660742,0.14473276,-0.10366106
0.016898256,0.13330784,0.07007943,-0.58528435,-0.817362,2.3717062,-0.40688312,0.32491365,-1.349884,-2.3860784,-0.08535689,-0.8266467
0.22688325,-0.015885394,0.12833624,0.2583941,-0.68555355,3.0322733,-0.5011478,0.58103955,-0.21170747,-2.5423834,1.0101067,-0.19280732
0.08258158,0.15798205,0.049816076,0.11937342,0.28212133,-2.0748734,0.41222048,1.3417573,-0.90104544,-2.3589895,0.31183583,-0.062696576
0.050983272,0.19429544,0.060308006,-0.68416166,0.69836706,0.09610028,0.6373911,1.092357,-0.9947395,0.0085942745,0.83774644,-0.80812865
0.2811012,-0.12423809,-0.08970699,1.0684891,0.4109929,-1.7878596,-0.7697409,1.3345417,-0.1282674,-1.9255402,0.32444072,1.3555619
0.027625944,0.14473732,0.2858035,0.05108175,0.46742326,0.4966491,0.56264603,-0.30957484,-0.25635397,-0.34371853,0.97491163,0.199224
0.050881296,0.11635741,0.10446193,-0.61021054,-0.7239681,-0.6902164,-0.5779469,0.24402615,-1.1774657,-0.09521937,0.023841456,0.21920896
0.21170825,0.012996791,0.30577683,0.45366514,0.5923677,0.9380909,-0.569283,-0.32675254,0.048333645,-0.0062623024,1.0076202,1.6533707
-0.004429478,0.11932389,0.111346796,0.13400298,-0.80999947,-0.191864,-0.005497217,0.3470867,-1.1393058,-1.794036,0.09870429,1.5096844
0.2464455,0.26996613,0.112749405,-0.39125258,0.7435414,1.2724028,0.49441648,0.48758373,0.17773402,-0.4498315,0.17129035,1.1000999
0.025301969,0.14447278,0.10905844,0.077715516,-0.33041707,0.47547394,0.3388207,0.8237773,-1.0090744,-0.25010014,-0.1564854,0.37742126
0.29904932,0.08629224,-0.1367859,0.95409757,0.85527253,-1.4547076,-0.02050829,1.3295794,0.09991169,-2.046703,0.6243067,1.5094899
0.1254484,0.12520936,0.15776248,0.013649004,-0.10915788,-2.4230518,0.005056262,0.5399995,-0.7055808,-3.3687503,-0.057828903,0.9388181
-0.09002668,0.0594035,0.022871893,2.1778934,-0.4041367,0.24200042,0.59016025,-0.035712153,-1.2532548,-2.6203578,0.9623434,0.94961226
-0.034475483,0.13118353,0.06043946,2.1168034,-1.4207872,0.43947163,0.2897253,0.56658614,-1.0675566,-3.3175476,1.1543131,1.5536863
-0.03866283,0.12048213,0.23753805,0.21103767,-0.83289766,-0.68180984,0.19395971,-0.34199423,-0.5115022,-1.7118316,-0.0043745935,0.7444054
0.11125727,0.052564234,0.12582974,-0.49391872,-0.32406464,-1.0921613,-1.0367545,0.35363314,-1.1042913,-0.2636242,0.17484795,0.27317524
0.08584756,0.07737753,0.21186592,-0.6769931,-0.65742636,2.8098824,-0.8820053,-0.20442055,-0.6247286,-1.969836,0.17076077,-0.4528637
0.10853127,0.046301536,0.0428914,0.6890632,-0.61456496,-1.4866649,-0.360587,1.2772152,-0.99482965,-2.214963,1.0398237,0.98601615
0.23581459,0.2020087,0.1910981,-0.21660689,0.5461483,-0.67271924,0.2859689,0.28981242,0.015593052,0.10800648,0.27892685,-1.1323392
0.09781252,0.015200149,0.12921096,0.60267174,-0.9443595,-1.515042,-0.7165079,0.4018351,-0.86751604,-1.7403381,0.9174269,0.39253247
0.12055352,0.06077925,0.20661974,0.04594375,-0.29676962,-1.8546053,-0.5325261,0.109274715,-0.6679278,-0.53886676,0.37155056,-0.84294844
0.21536222,-0.04209295,0.28880417,0.51970947,-0.18593645,-1.4362903,-0.6330239,-0.15607688,0.14049864,-1.2755172,0.5534362,0.4184538
0.2537334,0.15866196,-0.011457955,1.0334996,0.91268826,-2.914654,0.29167664,1.0271294,-0.1943804,-1.3336802,0.8507654,-0.9253931
0.10344865,0.10921918,0.2595114,-0.30641443,-0.43775132,-2.3866885,-0.29087788,-0.14362672,-0.34616792,-1.4202982,-0.14223146,-0.5715488
0.018579952,0.13316369,0.09304288,-1.1655751,-1.034432,1.2274675,-0.4771731,0.013426274,-1.1250452,-3.229733,0.25724,-0.6159381
0.12682548,0.14761366,0.050766785,-0.12697898,-0.42397726,2.2298596,0.09344864,1.1925348,-0.69339997,-3.3349593,0.9236489,-0.8278024
0.2519707,0.25477955,-0.14051771,-1.2576998,1.05179,-0.64228714,0.41857803,1.2095921,0.20272744,-1.6296631,-0.07844347,-0.297069
0.33433428,0.038575668,0.074978076,0.9335505,0.5597873,-1.9417044,-0.14849985,0.63297355,0.045422077,-1.291028,0.66755897,0.027724266
0.22932604,0.07058855,0.25916702,0.05096889,-0.4015943,-2.69665,-0.21201795,0.0018045008,0.18400729,-2.9068687,0.58330595,0.4245268
0.1483953,0.014394328,0.08792114,0.31264105,0.19463435,-1.7115443,-0.8656107,0.9740372,-1.1913148,-0.0879364,0.58257776,-0.7327893
0.27770215,0.031197835,0.11323788,0.76358145,0.03411075,-2.510311,-0.18855858,0.6034726,-0.110139966,-1.8575311,0.7769282,-0.25902635
-0.03857507,0.14452396,0.04365291,-1.8938419,-1.2303196,2.1296406,-0.2836256,-0.40447557,-1.2734517,-1.5915254,-0.04025647,-0.68124706
0.12889771,0.030861646,0.08580728,0.017991303,-0.124006696,-0.62535524,-0.8738611,1.0608394,-1.1996872,-0.9738846,0.128888,1.2138695
0.32575768,0.054111667,-0.14886999,2.0270634,0.85828596,-1.6978301,-0.12542689,1.219813,0.089135766,-0.7813258,0.7647762,1.0185355
0.22403508,-0.19687507,0.05663673,0.64928806,-0.26120594,1.9305394,-1.0358998,0.8470274,-0.14326704,-1.9631786,0.59763604,-1.2422428
0.019968204,0.095314376,0.06811732,0.3302268,-1.3588296,-2.2643394,-0.44954914,0.3498554,-1.2189916,-2.2557163,0.6788263,-0.10797727
0.11749449,0.18827309,0.044987205,-0.27237839,0.97827345,1.402243,0.5026417,1.1358867,-0.8114301,-0.42880583,0.7003481,1.2353333
0.2536708,-0.11612351,0.2304319,1.0458329,0.42867953,-2.496515,-0.84154797,0.009116232,0.017782927,-0.24679208,1.0713937,-1.154585
0.16368714,0.05013599,0.07269206,0.33240715,-0.13402121,-1.6737837,-0.3498236,1.1293783,-0.83848524,-2.2508655,0.46635354,0.9573184
0.17895633,0.017863337,0.14767063,0.56259835,0.05205272,-0.6260581,-0.4682483,0.54459465,-0.70567065,-0.8235769,0.66358477,0.64077485
0.21975881,0.048974194,0.08327866,0.20224439,0.35194284,-0.43515068,-0.35181212,0.99945307,-0.6874132,-0.58702064,0.105299726,0.54900885
0.06328413,0.13896582,0.06316222,-0.072610945,0.17019224,-1.2239163,0.14534867,1.3858306,-1.1786182,-1.0246241,-0.054107964,-0.35563904
0.17040873,0.08315734,0.13890305,-0.058825858,-0.011761222,-2.4806666,-0.29247862,0.675606,-0.7232856,-1.922233,-0.056373917,-0.2643469
0.21759714,-0.023219341,0.0646486,-0.41440138,-0.28027192,3.0877936,-0.7503482,1.0006104,-0.476157,-3.2529764,1.0145746,0.8383423
0.034711007,0.07465804,0.07299709,0.58213127,-0.79034954,-2.3275483,-0.502219,0.4569482,-1.3248196,-1.3315649,0.77694243,-1.0914567
0.19923264,0.1421625,0.20851117,-0.16882753,0.094797656,-0.32542616,0.03144908,0.28507528,-0.23508501,-1.87029,-0.17272103,1.5012487
-0.006155312,0.095194,0.24875751,1.0499929,-0.16593143,-1.4358022,0.54759383,-0.24932092,-0.31510782,-1.9176723,0.75492287,-0.38605505
0.14007102,0.064234585,0.32139203,-0.23776278,-0.24282096,2.4616241,-0.56728256,-0.38498566,-0.0021677017,-2.280498,-0.083955094,-0.93221104
-0.047639545,0.086031154,0.08510549,0.5952777,-0.21687564,-1.0165943,0.31220472,0.060964227,-1.3640139,-0.5889809,0.95989007,-1.1351856
0.17464921,0.07969812,0.07429765,0.7054792,0.22609633,-1.9849219,-0.035233855,0.99892664,-0.731277,-1.5046453,0.6750983,-0.26697737
0.0751617,0.15259048,0.18568893,0.16740005,0.19188137,-0.0029560032,0.40129793,0.3339276,-0.64791155,-0.5070529,0.4819005,0.08241582
0.06330652,0.13019224,0.11023319,-1.6019683,-0.5981871,0.69900495,-0.99715364,-0.38172993,-0.9713826,-3.039205,0.2446809,-0.9542295
0.22746095,0.20707266,0.1743024,0.025732862,0.06060487,2.4349287,0.3285005,0.36182472,0.12974036,-3.0394356,0.44448084,-1.125597
0.16946472,0.06529858,0.033972736,0.4673556,0.9272083,-1.0141523,-0.44338298,1.3959562,-1.1767838,0.1400516,0.78805053,-0.48731208
0.1396776,0.048474625,0.27022076,0.57501566,-0.3463037,-0.85819805,-0.30315685,-0.14647493,-0.1729765,-1.4270552,0.6381456,0.664217
0.22016492,0.005098401,0.1517317,0.07284317,0.093236424,0.1562563,-0.5792569,0.5991001,-0.5298429,-0.19664335,0.049554422,0.935892
0.17452227,0.09377067,0.114254296,0.01687436,0.06596282,0.023120847,-0.19065166,0.84467936,-0.73514926,0.096942425,-0.041761875,0.11760819
0.022017002,0.14265575,0.090442784,-0.14021625,0.14684735,-0.43418565,0.27480793,0.90821743,-1.2546265,0.18447685,0.5339763,-0.88703424
0.34183407,-0.09013452,-0.13661939,1.1002392,0.90348214,2.1246815,-0.6222776,1.2226995,0.2061069,-3.2093527,0.14275457,0.24365473
0.17163625,0.17570302,0.31527364,-0.19671462,0.96153075,0.4163265,0.30205512,-0.39206308,0.3152145,-0.1587336,1.0507631,0.16326654
0.21123959,0.19113475,0.19482027,-0.039831363,-0.057751782,-3.0205936,0.2663269,0.30876365,0.047037363,-3.2780757,0.40447235,-0.017372608
0.055079054,0.04811171,0.04246761,0.81311506,-1.2264384,-1.2814095,-0.7629577,0.83786035,-1.2959507,-1.9765686,1.121847,0.5859945
0.025264781,0.12665036,0.0671913,0.22021616,-0.5590214,2.459764,0.1826669,1.1889076,-1.1137645,-3.0031872,0.6708586,-1.0627747
0.13583139,-0.018563012,0.17726237,-0.6464426,-0.75885695,1.2890995,-0.9953048,0.2691122,-0.52628314,-2.6041558,0.7247277,-1.1814419
0.35001522,0.05015851,0.11747144,0.702067,0.65045667,-2.60636,-0.13979971,0.45456824,0.18190408,-1.17241,0.478679,-0.8957708
-0.07056955,0.10444176,0.14468844,0.57610303,-0.834871,-0.90054065,0.44341218,0.01576817,-0.963561,-2.6840954,0.027899921,1.072467
-0.05804353,0.083768725,0.17764738,1.5962043,-0.74500537,-1.6340015,0.41511905,-0.25208896,-0.59806216,-2.5690014,0.82778317,-0.49979508
0.04983747,0.093680054,0.22930583,0.3478785,-0.11632015,0.48080444,-0.23724449,-0.2707981,-0.6561569,-0.45587206,0.9433536,0.97131
0.1992206,0.28319165,-0.14011635,-1.3422834,0.9369229,-1.1570969,0.57884157,1.2680589,0.11682856,-2.4527464,-0.066304825,-0.08311367
0.331436,-0.012182405,0.0039198436,0.5260407,0.7514718,-2.8203928,-0.4114383,1.0091738,-0.1306479,-1.4664475,0.06362045,-0.70108265
-0.041615665,0.124135405,0.14195946,0.5969343,-0.7562577,-3.0603805,0.56893647,0.34078994,-0.86763954,-3.206536,0.39894325,-0.6585218
0.049692072,0.117782205,0.121295474,-0.8611824,-0.812518,2.8690271,-0.65134335,0.024495631,-1.0545911,-2.819943,0.08005054,0.43266022
0.18133937,-0.05515214,0.006724488,1.2926096,0.028696634,-1.2063493,-0.74008024,1.3320118,-0.88598144,-0.9579611,1.0046422,0.73201406
0.041904554,0.08437135,0.10827845,0.113143474,-1.4754709,2.9009824,-0.50711244,0.17611471,-0.96300566,-2.4052508,0.8239799,-0.8523339
-0.01076231,0.12555234,0.07312438,0.12515013,0.021697756,0.10607488,0.45146692,1.2436032,-1.2933536,-1.4526794,0.12292026,1.1056067
0.022332227,0.16284674,0.09349747,-0.31930736,0.35903826,0.18875654,0.5160258,0.89398396,-1.1346475,0.12595677,0.7137909,-0.50080985
0.25830793,-0.20666675,-0.11191853,0.69312876,0.16404128,-2.4076908,-1.024947,1.2185618,0.23997176,-2.873911,0.78887653,1.6950899
0.17962173,-0.015419051,0.117422566,0.7018626,-0.58207554,-2.2131166,-0.53400695,0.66785467,-0.55251694,-1.9198487,0.91375,0.07510662
0.2427565,-0.008458813,0.27389503,-0.033014588,0.011498063,-2.2314901,-0.5876647,-0.035064876,0.09457898,-0.46088505,-0.076171376,-1.1841381
0.18514705,0.08648667,0.13556884,0.80566126,-0.5861708,-1.9961299,-0.0034419298,0.5137075,-0.262437,-2.4143155,1.1352935,0.26676178
0.23049727,0.21023382,-0.0061539337,-0.35566217,0.82518464,-1.0518526,0.32883942,1.1289109,-0.25942683,-0.85174775,0.018185869,-0.67959
-0.008926686,0.14984183,0.077890664,-1.5866948,-1.0483166,-2.0162778,-0.52244645,-0.43576485,-1.1324581,0.0020194054,-0.010507047,-0.43372333
0.15264115,0.02179201,0.14523439,-0.22731844,-0.17267634,-1.5264474,-0.8254043,0.55861795,-0.85568714,-2.0780132,-0.027834058,1.4003669
0.16429377,0.004586149,0.14224733,0.7610956,-0.21033275,-0.18255879,-0.49000955,0.5246613,-0.69145495,-1.2261074,0.8282359,1.3808681
-0.018293124,0.14144585,-0.0074817017,-2.7414174,-0.73481965,0.8898145,-0.16303307,0.025617123,-1.3539681,-3.3501613,1.0196005,0.6058816
0.00039192662,0.13291162,0.05254236,-1.0483828,-1.1694943,2.4598265,-0.38815325,0.1973072,-1.3249202,-2.998955,0.2493275,0.27034044
0.03734996,0.13410878,0.19850363,0.41277373,0.34562343,-0.28862938,0.5612086,0.1553221,-0.6488278,-0.8015382,0.769453,-0.11186409
0.08403331,0.15096125,0.32409537,0.017785382,-0.17567281,-1.8921747,0.23767519,-0.34266478,0.06588888,-2.9085186,-0.1046645,0.78044856
-0.07889708,0.10493992,0.09672288,1.7957909,-1.254167,-0.5573783,0.093070984,-0.31894445,-1.027936,-2.4962542,0.363564,0.17083299
0.17012314,-0.033709608,0.12929848,0.6732059,0.046004225,-0.38317317,-0.8124352,0.60577476,-0.84739757,-0.54153275,0.87297064,0.93122804
0.164552,0.1924996,0.13887022,0.026264256,-0.45631555,-1.6773134,0.3125366,0.56398773,-0.16781771,-3.2932377,0.8456188,1.2722405
0.123859674,0.062192142,0.08247022,0.40934277,0.26860827,-0.63122237,-0.46582568,0.98460233,-1.2231065,-0.353096,0.7033012,0.21458137
0.19918403,0.28952768,0.13823535,-0.3046442,0.4411223,2.277047,0.6073681,0.43649003,0.18892622,0.21629524,-0.09771215,1.391256
0.10971032,0.18980618,0.11688474,0.50048566,0.14656727,-2.2011611,0.5972059,0.72160006,-0.41302562,-2.274562,0.67204046,-0.406308
0.14518994,0.09800217,0.06189052,0.060617603,0.2888588,1.3843023,-0.2046718,1.3031667,-1.015655,0.13816833,0.0075347573,1.4594744
0.22344677,0.080237605,0.17595792,-0.06489622,-0.06573342,3.0427215,-0.22698963,0.45562246,-0.3074969,-3.3532267,0.23185788,0.33828723
0.19541104,-0.0031880774,0.1133351,-0.29302487,-0.480012,2.7236333,-0.6758224,0.7596313,-0.52193063,-3.0162008,0.7915688,0.21655858
0.083824456,0.030904025,0.15567681,0.38143793,-0.9602834,-0.5273602,-0.75391257,0.16249183,-0.8294965,-1.6061876,0.7993065,1.3404075
0.26748192,-0.04522933,0.18804365,0.47478083,-0.59836555,-2.1290045,-0.49514598,0.22836426,0.20948362,-2.3544486,1.0104332,0.7316685
0.13946952,0.1416351,0.12553869,-0.08516221,0.13651319,3.0330825,0.079951525,0.76292765,-0.7515212,-2.632822,-0.15070157,-0.7034774
0.20851839,0.20091577,0.27742562,-0.087767676,0.259805,-1.9462836,0.31896937,-0.08469397,0.3283559,-3.1454926,-0.030249953,0.868781
0.17695692,0.018623656,0.03888358,0.7696483,0.78940725,-0.16208269,-0.7359921,1.3085324,-1.2122828,0.14031029,0.94515663,0.76082385
0.26806,0.17981993,-0.007363096,0.0062395856,0.09973137,-2.6663933,0.1973393,0.9768044,0.1308583,-3.111371,1.0112699,0.2633649
0.26438653,0.26702908,0.019697338,-0.05944985,1.1549389,0.52057004,0.52804136,0.71512556,0.21791601,-1.2349062,0.4850142,1.4327785
0.26969877,0.12753887,0.20194018,0.50730324,0.3924381,-1.5907618,0.12054193,0.21054491,0.14684331,-1.5248919,0.51454556,0.011636496
0.22235775,-0.008882241,0.13851811,0.44041094,-0.13920338,-2.0585175,-0.49403918,0.62810934,-0.43815666,-1.7791872,0.46360356,0.22729146
0.19250366,0.16869754,0.120514005,-0.06880377,0.32098606,-0.276288,0.20796335,0.7346387,-0.4375053,-0.04234028,0.030919567,-0.45285732
0.2267564,-0.15006904,0.1610943,0.9423211,-0.025768597,-1.2298733,-0.9361954,0.39267138,-0.21980762,-0.76082253,0.81159496,0.5067655
0.09659374,0.084349304,0.21310848,-0.77558655,-0.38468784,-2.4876068,-1.0280869,-0.29202312,-0.6531947,-3.000967,-0.09872801,1.7071239
0.1661893,-0.01919141,0.12929362,-0.015779883,0.0466943,0.4457459,-0.9901758,0.70478106,-0.90608126,0.22132444,0.21891703,1.2190493
0.0704369,0.18177165,0.1067148,-0.03214563,0.13231605,-1.2504411,0.51827514,0.8978262,-0.77874124,-1.2682989,0.03948322,-0.50029945
0.040999718,0.110205114,0.22880131,1.0576316,-0.8236141,-2.5690317,0.21765316,-0.11169997,-0.27797318,-2.571171,0.8901501,-0.82558435
0.05934002,0.11658167,0.105998054,-0.23555648,-0.49395326,-1.6044322,-0.30105466,0.63031924,-1.159676,-1.3744667,-0.056778677,0.14585686
0.092546076,0.10558857,0.06540547,-1.0785192,-0.35047066,-2.5620759,-1.0352302,0.2370154,-1.3381019,-1.5263222,-0.12759893,0.28904486
0.24220577,0.15348804,-0.026798122,1.2317423,0.7676786,-0.8939923,0.31551182,1.0669618,-0.18958807,-1.4512792,1.0486382,1.3416167
0.18911664,0.09851873,0.033852085,0.25474918,0.46897808,-0.49522027,-0.080981076,1.3261354,-0.76442164,-1.895585,0.19915323,1.5966314
-0.03812973,0.13642421,0.13221556,-1.0607139,-1.3300005,2.4629588,-0.21303213,-0.33536607,-0.9076166,-3.132477,0.21112151,0.38576877
0.00640573,0.123635344,0.2544192,-0.16805756,-0.85587496,-2.8544226,-0.20860046,-0.42245308,-0.41550058,-2.1046143,0.057074472,-0.4864381
0.32469583,0.2199307,-0.051857498,-1.5965949,1.3359075,0.49783927,0.2770971,0.8563801,0.2276324,-0.08919239,0.49445474,-1.019237
-0.09506479,0.10306553,0.1240783,0.7101164,-1.1507739,1.2506161,0.2512325,-0.31720102,-1.0114077,-0.39959908,0.07849233,0.9037205
0.2557971,-0.015840996,0.07028405,0.27674365,0.3887129,-2.467422,-0.57087284,0.99976575,-0.5294591,-1.2464101,0.008388147,-0.59342223
0.102624886,0.16013943,0.047882475,-0.0030386427,-0.13354433,2.3810406,0.26414096,1.2952266,-0.7775191,-3.2041383,0.6468335,-0.9721365
0.12543936,0.014035504,0.053941526,0.9679539,-0.26492748,-0.6609831,-0.5071881,1.133144,-1.0612066,-1.428796,0.9799151,1.1732389
0.2565153,-0.009572638,0.012607608,0.29820418,0.5614599,-0.6708602,-0.5699134,1.2977805,-0.5694385,-0.6432371,-0.1302166,0.59963536
0.11100953,0.062604345,0.078803554,-0.22700538,-0.17783864,-1.2623341,-0.88639724,1.0430303,-1.3173872,-0.22427797,-0.013385847,-0.1309222
0.2563601,0.14357315,-0.07247424,0.66791654,0.44525307,2.6721313,0.21761608,1.2072221,0.038158655,-2.3041525,1.0348669,-0.8997134
0.20366828,0.23916958,-0.124427125,0.6046968,1.2302845,-2.7193427,0.6028466,1.2501543,0.10615194,-1.7513467,0.7785495,-0.5414633
0.37668768,-0.10262914,0.072024025,0.72015905,0.65796584,-2.1421413,-0.57493734,0.54612076,0.3055774,-0.9370887,0.13117333,-0.32558578
0.18946597,-0.02903454,0.18469203,-0.041493397,-0.038939152,0.2884643,-0.86403906,0.39571717,-0.54871744,-0.027988672,0.096205786,1.1810943
-0.074973576,0.10467131,0.059709802,0.662532,-1.0437114,-1.5695072,0.25219488,0.23773554,-1.3525772,-2.0759785,0.09609507,-0.18945408
0.05293954,0.12092008,0.20704189,-0.8992368,-0.74636513,-0.43557885,-0.6524,-0.31740463,-0.61576074,-0.26833558,-0.1686534,0.8821858
0.096612275,0.13103604,0.07119587,1.0103128,0.71592456,-0.04903489,0.49129677,0.88782954,-0.84325385,-1.2823603,1.1450111,1.1776751
0.07032107,0.10805639,0.09973252,-0.3050913,-0.5419339,0.57900417,-0.413458,0.69404364,-1.1617002,-0.19285035,-0.14883798,1.2776061
0.26210678,0.043739077,0.2279639,0.8678146,-0.07105015,-1.6335171,-0.12822735,0.0500682,0.23573303,-1.772249,0.8940094,0.367144
0.122036874,0.21033837,0.024068996,-0.30127612,0.58016634,-0.23858033,0.5206785,1.2812319,-0.6446163,-1.4521496,0.0578375,0.6212845
0.27604887,-0.0063401842,0.23089057,0.04721032,0.21740878,-2.0410857,-0.5113243,0.15912846,0.026972532,-1.9566618,-0.07060711,0.42593896
0.047355484,0.09552572,0.1811984,0.5049756,-0.7406367,-0.14157616,-0.084626436,0.110758156,-0.71573156,-1.942301,0.45897812,1.5463761
0.049955677,0.0950084,0.084256224,-2.040906,-1.1524937,1.988902,-0.7217854,0.084536105,-1.0267109,-2.6948404,0.87613577,0.48931277
-0.078598365,0.12499181,0.10774633,-0.049130548,-1.3373681,0.2308604,0.12688732,-0.23969929,-1.0699401,-1.3825215,-0.13723156,1.629927
0.041240357,0.17082812,0.3111577,0.22401153,-0.20815566,-0.6952523,0.5748309,-0.26631284,0.056599975,-2.4615493,0.111644104,1.1605395
0.017399628,0.13465345,0.10966058,0.119188525,-1.0117198,-1.7451752,0.16150022,0.5838977,-0.93302286,-3.261334,0.6688129,1.304169
0.0044143535,0.13379538,0.2803319,0.066767804,-0.5632526,-2.0851128,0.22449183,-0.32987982,-0.28892672,-2.2828054,-0.08445995,-0.025850534
-0.08162145,0.084590934,0.013951445,2.118541,-0.8358648,0.10545839,0.20139098,-0.348323,-1.3477689,-2.1001358,0.498228,0.09848499
0.10003273,0.07786104,0.18378852,-0.8752159,-0.42167202,-1.9279032,-1.0348613,-0.1409499,-0.77123946,-0.16782665,-0.034572423,-0.52276284
0.15974467,0.022823244,0.17126182,-0.39280272,-0.74063945,1.5837102,-0.6431086,0.36800525,-0.4792168,-2.8651078,0.71308845,-1.0486243
0.039507747,0.14651915,0.21962205,0.13501115,-0.37398726,0.46836418,0.33383954,0.09923211,-0.5317124,0.036951303,0.035977542,0.072282076
0.03478044,0.15778047,0.07210936,0.22651352,-0.87931085,2.5501392,0.3693955,0.9828993,-0.81780696,-3.3078141,1.062841,-0.9168829
0.29813832,0.03284996,0.02027439,0.30135578,0.7264939,-0.6519166,-0.32143837,1.0812783,-0.33292758,-0.0236094,0.027513176,-0.19131577
0.049852066,0.10784875,0.05613821,-1.2022809,-0.96257114,2.8846347,-0.84643185,0.16803399,-1.3113605,-2.2326431,0.3377251,0.18336463
0.115088664,-0.017372863,0.12893736,0.42840254,-0.6320918,-3.1243596,-0.9383379,0.5153091,-0.9335839,-1.247611,0.79164404,-1.2436712
0.2708682,0.0012869257,0.08701668,0.43871227,0.34779197,-2.8541582,-0.41744596,0.85024977,-0.3912208,-1.3650563,0.2338847,-0.9393415
0.31063595,0.008370802,0.13265358,1.0879204,0.60827917,-1.6177844,-0.26870006,0.42723086,-0.06253624,-0.77632165,0.90038866,-0.06438041
0.25013772,0.06391854,0.011377063,0.21381076,0.4796336,-1.6764702,-0.2359817,1.2703577,-0.49334466,-2.8567195,0.27065814,1.4984335
0.044595055,0.13484664,0.14889367,0.46223965,0.26739338,-0.054601006,0.534225,0.49122122,-0.8177741,-1.0569425,0.61818296,0.44214022
0.018958528,0.14094253,0.08373926,-1.3011665,-0.92865294,2.9125602,-0.6287797,-0.24658577,-1.1670119,-0.9398563,0.0051237196,-1.0771122
0.23465016,0.02681527,0.045196146,0.26724276,0.578775,-2.87605,-0.4602576,1.2020077,-0.71716666,-2.839621,-0.1515713,0.49246132
0.06787554,0.18744358,0.32561365,-0.07289051,0.15854837,-0.30161047,0.5518608,-0.327146,0.13133836,-0.059678078,0.36945838,-0.80173606
0.08614327,0.14904542,0.07016458,0.081705555,0.099697664,-2.7422986,0.28615916,1.2117683,-0.9310431,-2.6644425,0.23291607,-0.34497446
0.27605742,-0.22139835,-0.057282686,0.7384043,0.07852333,-2.736631,-0.97953457,1.0109155,0.25738096,-2.6095676,0.6547531,1.09064
0.19297637,-0.007191824,0.15464644,0.05847887,-0.16539441,-1.9925088,-0.6814328,0.57782197,-0.58809984,-2.0724454,0.17016737,0.7557522
-0.037779085,0.12378571,0.23728412,0.28331643,-0.70060205,-1.0135995,0.39792013,-0.22384799,-0.51025695,-1.3653929,-0.05397389,-0.12988317
0.20625094,-0.021418858,0.21936482,-0.68665045,-0.43323252,2.894377,-0.7936332,0.14087626,-0.08500528,-3.280997,0.84800094,0.8393785
0.30534977,0.12841982,-0.053821452,0.4615078,0.6940867,2.3504462,0.09127307,1.1011001,0.084504366,-2.3698,0.6093423,-1.2295421
0.042729776,0.119049154,0.12320818,-0.3221737,-0.671909,0.55514324,-0.35346478,0.28557584,-1.1025841,0.20250583,0.08469249,0.82671154
0.19664541,-0.025163842,0.13360599,0.4236262,0.29676846,-2.0759711,-0.78242064,0.64314246,-0.7830939,-0.12018037,0.6507296,-1.1146429
0.22528493,0.16090663,-0.020199481,0.41798028,0.42010662,-2.7994719,0.26658428,1.1982574,-0.19608867,-2.4342186,0.7973667,-0.28771412
0.24275534,-0.1845349,0.08630582,1.1468192,-0.55915624,2.820416,-0.87520295,0.55825925,0.045155764,-1.559064,1.1253884,-1.0066664
0.053888418,0.11157839,0.21486911,-0.4678651,-0.72196937,-1.4205118,-0.50961345,-0.22270237,-0.63184905,-0.97961116,0.03245136,0.235937
0.25616804,-0.07833987,0.05409632,0.36830467,0.4697098,-1.3154769,-0.8132081,1.0552992,-0.5124019,-1.8938904,-0.11437504,1.450327
0.3441345,0.09242026,0.14835757,0.34168747,0.4694273,-2.1280937,-0.044768214,0.35023966,0.31520784,-2.0728517,0.32305294,0.16803098
0.16690889,0.16017331,0.23610471,0.24293031,0.26167876,-1.0675217,0.28584087,0.1314728,-0.13072181,-1.0193691,0.35475725,-0.3017559
0.20801654,-0.003549682,0.04177001,0.4835749,0.3693094,-2.0156012,-0.6078774,1.300767,-0.8358984,-0.91142344,0.19063775,-0.3679657
0.06681955,0.08226667,0.13745867,-2.3376746,-1.301062,-0.15030125,-0.5328395,0.04201001,-0.6861811,-2.7781818,1.1491476,-1.1915643
0.3086084,0.108930945,0.16924198,-0.06162931,0.4621786,-0.56159824,-0.07229102,0.36943802,0.08692837,-1.5930575,-0.08732344,1.0689543
0.07325199,0.10728073,0.20981845,-0.43857932,-0.5260027,-1.9645029,-0.5260748,-0.12780839,-0.6833993,-2.7089138,-0.15679453,1.4178013
0.28984603,0.19531177,0.14647321,-0.4947794,1.0504938,0.3002482,0.21756399,0.3488098,0.07931459,0.067892075,0.69050837,-0.2873956
0.30627123,0.02556961,-0.19728093,2.1959085,0.4300818,-3.0925832,-0.19570792,1.2742606,0.18322062,-0.82671356,1.0602795,-0.18788028
0.13725749,0.124988176,0.21269402,1.0514319,0.47496888,-2.2069252,0.3559054,0.07187405,-0.2340498,-1.3172374,1.14854,-1.0669398
0.28321284,-0.20725861,0.14458054,1.2349912,-0.16595213,-1.1247013,-0.8582391,0.24374619,0.3486836,-1.167062,0.92384773,1.0776457
0.029701345,0.12631944,0.09944658,-0.6972855,-0.87623894,-2.4223366,-0.4914502,0.13519016,-1.1772739,-3.1273742,0.015877321,1.533702
0.102249935,0.16612937,0.060235895,-0.16171317,0.52791286,-0.93289214,0.33544683,1.22526,-0.94150907,-0.13092542,0.26733476,-1.1760947
0.010426667,0.0984426,0.1879909,0.67005354,-0.6223829,-2.2326407,0.094908,-0.01742062,-0.7275852,-1.6378117,0.4646045,-1.0978515
0.02594776,0.12524475,0.17161264,0.08394102,-0.5739413,-1.1313494,0.06669819,0.18413618,-0.84415364,-0.3963263,0.088358805,-0.83803713
0.058301996,0.10946912,0.11736491,-1.1410294,-0.8096879,-1.440556,-0.989945,-0.25496206,-1.0393555,-1.4756808,0.2655586,1.3633527
0.1310735,0.19542807,0.24253179,0.07372333,-0.43137047,2.5703142,0.3870933,0.086073846,0.045817375,-3.3212276,0.56643623,-0.801637
0.26720008,0.0331844,0.21159117,0.7074163,-0.108691454,-2.957472,-0.19299513,0.16010138,0.14837265,-1.8849496,0.7594843,-0.804016
0.16029161,0.026698416,0.32090625,-0.23962797,-0.26084787,-1.4987869,-0.71826243,-0.3464262,0.05425644,-0.04890108,-0.060239457,-0.69960785
0.13525045,0.18566695,0.037273057,-0.29355043,0.6379958,0.21137716,0.36151397,1.2645695,-0.7654606,0.034947157,0.19461249,-0.2844447
0.3708519,-0.14952163,-0.03265634,1.4408166,0.6687683,3.0811586,-0.66389525,0.76484966,0.32171237,-0.56923485,0.44225633,-1.2120078
0.31119478,-0.21163452,0.14373739,0.76697767,0.5163521,0.2905769,-0.94534206,0.32930842,0.29319715,0.17384768,0.27475172,1.2582649
0.2518378,0.03348059,0.19143902,0.68617654,0.37025934,-0.6253002,-0.24999624,0.28689852,-0.20234632,-0.8384814,0.7065312,0.6202142
0.30030015,0.034346458,-0.029374167,0.3468017,0.8660216,-0.47016,-0.3212319,1.2535825,-0.30591094,-0.7724507,-0.04525894,0.7690464
0.019806031,0.12350057,0.18785124,-0.15862973,-0.83336216,-1.1783642,-0.14941132,-0.06403288,-0.7570279,0.21461654,-0.024191365,-1.175496
0.04940483,0.13641098,0.26417828,0.36792263,0.6503061,-0.3641524,0.55730844,-0.21954645,-0.29718792,-0.69025826,1.0853224,-0.2861688
0.021745156,0.112203024,0.075136125,-0.07626452,-0.78766745,-1.5723023,-0.36293608,0.5714462,-1.3415303,-1.5686525,0.20274203,0.30859613
-0.02770965,0.12936807,0.22982556,0.02819578,-0.31139112,0.5892363,0.3645903,-0.21461926,-0.64827746,0.15734053,0.56710356,0.099998474
0.10793411,0.07077585,0.085465126,0.28140342,0.019767042,-0.9896782,-0.4395783,1.0218698,-1.2167959,-0.6499071,0.41295552,0.078220725
0.09030388,0.08334675,0.09738211,-0.52841157,-0.47298098,-0.8938883,-0.8401849,0.5221381,-1.2252018,-1.3204465,0.041059837,1.3823899
0.12080365,0.0032063648,0.12327139,-0.74286884,-1.1777444,-3.0845575,-0.844681,0.46477678,-0.6874756,-2.5204365,1.1002413,0.70513046
-0.044502426,0.10949984,0.05803154,1.3304808,-1.3283874,0.49554732,-0.17290026,-0.21441947,-1.262578,-1.6435974,0.40904224,0.833145
0.15637396,-0.003966918,0.15458065,0.275776,0.29994768,-1.6821334,-1.0463183,0.26416007,-0.97189176,0.14146543,1.0974047,-0.6833146
0.098451644,0.07108557,0.10812046,-0.25729737,-0.27286726,-1.8542691,-0.9130989,0.3641627,-1.2566266,-0.12626457,0.52831095,-0.8082707
0.055568203,0.14190517,0.06088563,0.2979089,0.34822354,-2.3623765,0.48341537,1.2763283,-1.0136148,-1.7318207,0.42045397,-1.0058038
0.2003257,0.05035569,0.11950485,-0.014096311,0.21797831,-2.9173105,-0.44783515,0.8000463,-0.73560214,-2.4408312,-0.16521615,-0.03363526
0.13744159,0.17084336,0.20178911,0.31208515,0.21534817,-1.6549034,0.406698,0.30251393,-0.2886777,-1.3928932,0.37448013,-0.6321205
0.2698688,-0.12164272,0.084986284,0.39023632,0.3195345,-1.4830985,-0.8616841,0.81914794,-0.27238762,-0.067792654,-0.047764406,-0.49085152
0.22984909,-0.07277613,0.23846303,0.9092646,0.11356286,-2.2947595,-0.6975689,0.01413101,-0.06275153,-0.7059498,0.9508987,-0.85177696
0.2751589,-0.14772704,0.01867671,0.7164653,0.39346462,-2.4008512,-0.88686734,1.0308739,-0.24166644,-1.4847732,0.086501226,0.15571547
0.1586858,-0.012419641,0.1827859,0.78142154,-0.6669875,-2.9896324,-0.566401,0.25712255,-0.42457688,-1.7308575,0.94284886,-1.0608387
0.23250012,-0.05000077,-0.0025675446,0.16916722,-0.18098702,-3.025956,-0.69272923,1.2852197,-0.37445718,-2.8424757,0.9659309,0.6152359
0.18790378,-0.10002126,0.03545036,0.96115565,-0.44896257,-2.7634864,-0.84224415,1.0896198,-0.59752685,-1.5863533,0.9539415,-0.31428254
0.22627743,-0.13889909,0.10332422,0.5268115,-0.0696277,3.035494,-0.95008165,0.76429164,-0.3499576,-1.6015489,0.35594374,-0.6393904
0.27088004,-0.02603413,-0.007842757,0.61799425,0.75273776,2.8858337,-0.58030474,1.3065908,-0.53039175,-3.0071707,-0.1587807,0.43210804
0.25995278,0.17764932,0.0683277,0.30424756,0.024677407,-1.0910747,0.25409997,0.71662354,0.12527978,-2.7636306,0.9311381,1.5593323
0.047411744,0.07322279,0.22424473,1.2395171,-1.2232358,-2.5290034,-0.35993826,-0.29270166,-0.34486163,-2.286449,0.99407583,-1.1144269
0.2979568,-0.023051873,0.25116858,0.21569443,0.28378937,-2.2112226,-0.49942577,0.029895395,0.24542212,-0.5451386,0.08935703,-1.1292703
0.16108659,0.27021003,0.24695951,-0.47558028,0.59121126,0.91408086,0.6274849,-0.0065872967,0.25863576,-0.041574955,0.4886046,0.18352866
0.085522935,0.106596224,0.17189132,0.3114229,-0.37639472,-1.5818357,-0.0065336227,0.35227975,-0.73210263,-1.6105198,0.29170495,-0.08103812
-0.028431559,0.10918395,0.07860054,0.32825923,-0.08285432,-1.2743328,0.4861592,1.0285825,-1.3140473,-1.3643181,0.25342464,-0.44560397
0.35334414,-0.00010769442,0.05978246,1.0606972,0.31228447,-2.9467328,-0.22378123,0.58739316,0.24312592,-1.5932746,0.8357299,-0.56068295
0.30796897,-0.049630374,0.092975974,0.9667083,-0.21559891,-3.0746026,-0.39618677,0.5424497,0.14024949,-1.8790758,1.0452054,-0.54968745
0.12437512,0.0796969,0.26591817,-1.2219555,-0.8858005,2.0542834,-0.54154986,-0.30068135,0.0038676262,-3.2685082,1.0581077,0.24685776
0.19475305,0.2101507,0.09294739,-0.11864258,0.35034785,-0.6704548,0.37596858,0.8041234,-0.28207827,0.14678001,-0.15524504,-1.2082709
0.2920549,0.15453981,-0.099384606,2.8286636,1.5137997,2.8939264,0.12715518,1.2337881,-0.1148206,-0.29136157,0.52510166,-0.29928035
0.13834056,0.065026075,0.11150331,-0.091646366,-0.06744161,-3.118748,-0.5539965,0.8249339,-1.0231713,-2.7131152,-0.10174135,0.15564561
0.04515233,0.11347847,0.2126482,-0.7472607,-1.0129317,1.6604356,-0.4647032,-0.24721943,-0.53706115,-2.9873276,0.39116985,-0.76982605
0.069722876,0.0881631,0.23298174,-0.77579254,-1.1460437,-2.1338048,-0.5387184,-0.2595324,-0.3494295,-2.787641,0.6866742,1.6211134
-0.08448808,0.07775082,0.18550137,1.5929391,-0.8413643,-0.7927792,0.36618316,-0.43166333,-0.57811546,-2.5331016,0.6704156,0.25621867
0.058878753,0.080482274,0.085909955,0.2034213,-0.5747702,-1.1879725,-0.5145493,0.7044288,-1.2872676,-1.2739561,0.4490841,0.41194332
0.02224496,0.1568342,0.119614355,0.44092432,-0.38026443,-0.87836486,0.59244406,0.73846924,-0.75192696,-2.91114,0.56085306,1.3532363
0.021945821,0.11833135,0.14380924,0.4220642,-0.15753713,-0.07426349,0.33661258,0.44225177,-0.9515104,-1.0410278,0.3924753,0.5093678
0.29022697,-0.072354764,0.05453129,0.7615521,0.4655035,-2.7402983,-0.62150544,0.9045991,-0.3143294,-0.78220296,0.34738117,-1.069257
0.1122238,0.16960856,0.1396428,0.75561965,-0.46121824,-1.1786064,0.4561137,0.5190878,-0.27434957,-2.7273235,1.0814795,0.9624473
0.22821051,-0.21000749,0.015284441,0.48522708,-0.4987703,2.0173483,-1.024646,0.88074136,0.08137739,-2.3210025,1.0151694,-0.69516236
0.33169228,0.08462821,0.116803005,0.1895652,0.20294024,-2.5491118,-0.092526495,0.51144385,0.23015392,-2.816004,0.5425477,0.44150424
-0.046868376,0.05728376,0.053601325,1.3048506,-0.014830355,0.62099826,0.53478634,0.4143056,-1.3228711,-1.6952918,0.9771319,1.2499326
0.037734948,0.1219194,0.2593116,0.13260986,0.13979733,1.4737605,0.12977839,-0.29280457,-0.49102575,-0.18762136,0.91528755,1.4776422
0.1729898,0.11040319,0.28189287,0.11919438,-0.13544779,-0.45967016,-0.041974664,-0.08737549,-0.001809597,-1.89765,0.13065477,1.4663259
0.106492765,0.029115431,0.23415047,-1.3187037,-0.9918359,0.8488011,-0.93135923,-0.23670931,-0.23082364,-2.706073,1.0020618,-1.1274712
0.32082716,0.16823293,0.05402996,0.13597086,0.9642386,0.43954468,0.16929317,0.6991385,0.08866644,-0.92481637,0.27209067,1.3603181
0.22566527,0.19702016,0.18889207,0.11339458,0.27712825,-2.4383955,0.33012128,0.31399474,0.075681806,-2.2548475,0.24987046,-0.4600196
0.099491775,0.07654848,0.15877853,-0.52396923,-0.503009,-2.875822,-0.76763594,0.18229172,-0.9030994,-1.0391264,0.022446826,-0.9387549
0.06414399,0.12198696,0.21851072,0.30105484,0.477126,1.0280422,0.25505388,-0.057575792,-0.6230866,-0.42118478,1.1357105,1.1150659
0.12946317,0.055802293,0.22224624,-0.16388303,-0.5495398,-2.743568,-0.5531162,0.0690358,-0.4832307,-2.2846951,0.20789324,0.106924534
0.09346558,0.08320539,0.1152052,-0.5545369,-0.5644252,1.6203365,-0.7209463,0.48150125,-1.0777752,-3.032106,0.1740263,-0.75114834
0.29093167,0.12249224,-0.14493178,1.008931,1.0300754,2.2994812,0.101573944,1.3216449,0.117133975,-1.8785808,0.5775367,-1.1490335
0.30520758,0.07521176,-0.12917832,0.94869363,1.0928937,2.4085515,-0.10889053,1.3713317,-0.025218368,-1.7701374,0.28441674,-1.1722591
0.047568522,0.12054666,0.1297948,-0.59489286,-0.70351446,-1.959919,-0.52972555,0.08309516,-1.0635017,-2.7209136,-0.102812,1.5366682
0.2235255,-0.011148775,0.060713135,0.10733982,0.37209138,-0.82871205,-0.6997023,1.1645439,-0.74189776,-1.1658709,-0.17251599,1.0232333
0.046845753,0.13245487,0.20415159,0.11159671,-0.3574776,-1.0951053,0.16989124,0.12848923,-0.6608177,-0.26616645,0.16676323,-1.030741
0.039390497,0.13514186,0.12973191,-2.378921,-0.6223454,0.60396314,-0.62651086,-0.4013557,-0.6849508,-3.2673755,1.120182,-0.28143752
0.3283071,-0.07972859,0.043728244,0.7555019,0.59451187,-2.5958104,-0.5855545,0.8306904,-0.09141016,-0.7651329,0.23880328,-0.9365996
0.31964105,-0.1212224,0.012059349,1.2779764,0.72012335,-1.9650367,-0.7162247,0.886881,-0.14992237,-0.1896863,0.62230235,-0.46033102
-0.021994218,0.12514772,0.043450132,-0.60848755,-1.412151,1.8490235,-0.21862632,0.28525844,-1.3455161,-2.8112743,0.39900702,-0.96755713
0.09647124,0.124626115,0.3065749,0.788891,0.015929578,-1.3107343,0.35847878,-0.31696618,0.1369493,-1.7249124,0.7450469,-0.0077199936
0.345056,-0.09470412,-0.053866,0.9197497,0.80057174,-2.88761,-0.6194445,1.0594907,0.055434346,-1.0428796,0.039652064,-0.79062843
0.045669254,0.11345357,0.107832015,0.08760521,-0.34423733,-1.1953008,-0.11126584,0.6605058,-1.1754997,-0.5907476,0.21590553,-0.5395795
0.15950894,0.009588957,0.09256627,0.5939609,0.09874836,-1.9126803,-0.617676,0.9204179,-1.0005357,-0.70380545,0.6603099,-0.5785489
0.3670846,-0.030824438,-0.015587523,1.408514,0.58313704,-2.3237638,-0.32172567,0.7850481,0.19656849,-1.0821793,0.75856805,-0.008500218
0.010255577,0.14534178,0.16613379,0.11069209,-0.35412917,-0.7816979,0.4217124,0.35576978,-0.82448953,-2.7027872,-0.11181926,1.4907683
0.2346008,0.24378501,0.18619189,-0.9734903,0.9718811,2.1768582,0.4037547,0.15238628,0.13900423,0.12760592,0.95879215,1.0793618
0.021785889,0.12530686,0.09496074,-0.49062914,-0.8917886,-2.4125676,-0.38271868,0.25503197,-1.2092865,-2.6397753,0.03349632,0.83974135
0.30169594,0.06675756,-0.13274087,1.646287,0.9468393,-1.1431338,-0.088265955,1.3312967,-0.059772134,-1.0444849,0.6290907,1.462783
0.06707475,0.029370574,0.2219025,0.24839287,-1.4219214,-2.332406,-0.9776499,-0.35028312,-0.4014634,-1.8961904,1.0906763,-0.1545614
-0.032628026,0.12181961,0.103984006,0.33285084,-1.2061927,3.0084455,0.11259413,0.23406348,-1.0742753,-3.1129713,0.3869695,-0.51020026
0.2615314,-0.0037695654,0.06612007,0.7907178,-0.013643568,-2.615573,-0.33527952,0.8631456,-0.29836237,-1.8445517,0.7779743,-0.2204839
0.13113336,0.04443966,0.07211823,-0.025832105,-0.061431736,1.4336994,-0.78009045,1.2766852,-1.2035108,-2.9589367,0.13726233,-1.1087533
0.33523896,0.041113175,-0.029489521,0.553831,1.0468875,0.787733,-0.25015545,1.0828401,-0.122632146,-0.234653,0.1754147,1.619999
-0.066214345,0.10090542,0.13701192,0.2702635,-0.33472133,1.4921736,0.35969114,-0.21061003,-1.1396954,-0.14910197,0.9450255,1.1491503
0.041673373,0.14293274,0.09848511,-0.06638622,0.066098265,0.78569365,0.2463677,0.9126867,-1.1431122,0.15613317,0.31438512,0.38660014
0.18320857,0.07773782,0.062387656,0.17517485,0.6834017,-0.24504597,-0.3058039,1.1695086,-0.9770385,0.12560391,0.51065433,-0.008880258
0.16337642,0.013596386,0.12054217,-0.57919353,-0.93425435,1.2651385,-0.6571435,0.59746194,-0.5286164,-2.8785708,1.1165084,-1.1730392
-0.100918405,0.075146005,0.16209,0.7316233,-0.63966143,0.2994305,0.6259059,-0.20750557,-0.9076673,-0.42923045,0.20493786,-0.20005322
0.069263875,0.05925261,0.046528406,-0.032450918,-0.9893749,-2.450723,-0.7398813,1.2199633,-1.2730677,-2.3987334,0.950167,0.6867298
0.16951482,-0.016776346,0.08211386,0.5377792,0.022172108,-0.5018702,-0.74372756,1.0423896,-0.951306,-0.906374,0.477605,1.1719304
0.15194176,0.0065097976,0.119081154,0.46538478,-0.51893604,-0.7170085,-0.5707207,0.71290016,-0.75397134,-1.8561382,0.6699775,1.5704511
0.151681,-0.029715061,0.05787892,0.38213938,-0.44779435,-1.9857322,-0.82083535,1.213595,-0.88959193,-2.0912106,0.6805692,0.9358002
0.30326816,-0.18849204,0.05807282,1.4007167,0.38384187,-0.85101634,-0.85541886,0.6222589,0.027730107,-0.45357513,0.8078529,0.92739594
-0.012783585,0.13054296,0.144259,-0.021638226,-0.05346898,1.2863474,0.32522488,0.16661617,-1.1000874,0.048330307,0.8902593,0.93209946
-0.057385728,0.07265202,0.15983233,1.4170573,-0.5682692,-1.8030542,0.371624,-0.2295705,-0.75751454,-2.0945609,0.73487866,-0.9654128
0.35537884,-0.16582808,0.043137085,1.2215228,0.84870195,0.47072735,-0.7762172,0.612828,0.1984179,0.16229343,0.5363823,1.6541513
0.13389882,0.01431625,0.09325997,0.48119438,0.042631652,-0.51126254,-0.8144719,0.83628774,-1.1907089,-0.41481018,0.7901839,0.6721494
0.15034965,0.114435814,0.025038341,0.9263446,0.615293,-0.22264013,0.23316908,1.2440927,-0.7932448,-1.3706121,0.9013737,1.4510401
0.2216954,0.20546295,-0.05671056,-1.6489719,1.1782779,2.3994355,0.29796875,1.2673558,-0.41099507,0.13741946,0.74916583,0.65266633
0.10083459,0.10709442,0.2247478,-0.7760822,-1.3474226,-2.8688288,-0.18415421,-0.10056701,-0.15995455,-3.1131063,1.1516141,1.0539945
0.3415012,-0.033395365,0.0104182735,1.6653812,0.5087791,-2.0843558,-0.34443116,0.7381183,0.024414897,-0.82769465,1.092959,0.06826103
0.36779234,0.1414376,-0.051054865,-0.06489139,1.2547137,-1.2187966,0.047505498,0.88027513,0.29328156,-0.29721022,0.0854734,-0.99903226
0.18076515,0.01991757,0.25131756,-0.113555394,-0.124848455,-0.10752177,-0.6573616,0.025025845,-0.29387093,0.12766337,0.101589784,0.43102074
-0.08237153,0.09472175,0.09848798,0.499399,-0.6021284,1.1212823,0.5882546,0.34329918,-1.2382907,-0.10535169,0.13386358,0.47378254
-0.0113264825,0.115029976,0.0987359,0.47329918,-0.2732428,-1.7061967,0.46098673,0.79761386,-1.1267128,-2.0343342,0.31022304,-0.2461226
-0.0026368573,0.12944147,0.067856014,-0.5971077,-1.1049908,-1.8607922,-0.38225693,0.068956345,-1.3102684,-1.0811121,0.11238502,-0.09202671
0.33820435,-0.027101679,-0.11419955,0.6147565,0.8702637,2.0817213,-0.45975608,1.2558327,0.1278342,-3.1584141,0.3675291,-0.29477578
0.23699139,-0.14099003,0.22228584,0.071503475,-0.18106088,-2.093341,-0.9607582,0.17812094,0.13073099,-2.6388607,0.4005025,1.5294086
-0.06306776,0.043659396,0.06645637,1.4973497,0.038962167,0.47265565,0.57045126,-0.10846782,-1.2264663,-1.6251738,1.0373479,0.70053315
0.101851575,0.09382395,0.21432474,0.35810366,-0.38502374,-2.0537934,-0.09099436,0.12152925,-0.52432436,-1.5057107,0.36653435,-0.6029201
0.28186536,0.26876578,0.086712815,-0.40604106,0.7879375,-1.3792919,0.44273043,0.5048783,0.31894255,-0.9046869,0.06615877,-1.0651311
