x,y,z,R,P,Y,t1,t2,t3,t4,t5,t6
0.07273591,0.08782509,0.19089812,0.5639275,-0.4839609,-1.2914468,-0.07713717,0.1419425,-0.6644968,-1.56494,0.5323776,0.062386096
0.2665228,-0.015714195,0.10384938,0.21139644,0.3307251,-1.3987776,-0.54774475,0.80020386,-0.4098924,-1.2613716,0.00032948703,0.44580823
0.13096352,0.0675273,0.18689835,0.55552715,-0.3934918,-1.368749,-0.18540138,0.28467453,-0.5480185,-1.7027034,0.5874403,0.32601017
0.12381162,0.09545573,0.25629133,-0.062486466,-0.013705513,-0.896223,-0.31259155,-0.11246042,-0.42850348,0.1130321,0.51139385,-0.6809826
0.35935417,-0.021829681,0.09410864,0.24971345,0.6382554,-1.0368338,-0.42916846,0.5930434,0.124757886,-1.0184606,-0.07930596,0.46854693
0.29616395,-0.00025457516,0.18862075,0.47365427,0.5677171,-0.078456655,-0.4047742,0.29461938,-0.07337147,-0.29570508,0.5080009,0.7798987
-0.014051635,0.0910884,0.21191625,0.79075587,-0.38822117,-0.0012830099,0.26984638,-0.18991756,-0.63417596,-1.3659008,0.5759745,0.685276
0.015728079,0.116046146,0.20602456,0.2953796,-0.5810527,-0.75589406,0.10611898,-0.03290768,-0.67991,-1.1130955,0.20637321,0.09419209
0.15266258,0.09340604,0.24191283,0.18680052,-0.26248395,-1.2296708,-0.12716752,0.07847828,-0.2783736,-1.7653328,0.21655694,0.616666
0.32118595,0.17758776,0.0947942,-0.21839842,0.6999526,-1.6130375,0.1430515,0.5669791,0.16435647,-1.480228,-0.072553046,-0.38349396
0.15645139,0.14773896,0.21616648,0.044408422,-0.03317672,-0.3155521,0.14872348,0.24760777,-0.2968207,-1.3247283,0.04018548,0.8587566
0.28808418,0.20830727,0.13329825,-0.07334886,0.66852486,-0.356771,0.2886064,0.43594348,0.189093,-1.2732346,0.12720174,0.64195377
0.37881428,-0.030686613,0.04328981,0.89019746,1.0745438,-0.8146671,-0.4208989,0.6645459,0.118618906,0.046339273,0.48371583,0.103141665
0.21672536,0.026340522,0.11299549,0.22002327,0.2812237,-0.18173672,-0.4692114,0.8215198,-0.6779654,-0.2919606,0.21540794,0.6152112
0.118682966,0.06468868,0.20280121,0.36123297,-0.51339525,-0.84429705,-0.30538052,0.17194554,-0.5513356,-1.6776608,0.45985246,0.95321316
0.11270006,0.13931009,0.2883169,0.25780353,0.2164495,0.1521348,0.25290805,-0.17692983,-0.11112815,-0.6258371,0.5274216,0.5087703
0.19080758,0.13737568,0.22016719,0.26797476,0.1384456,-0.6720766,0.14849377,0.21718746,-0.1566757,-1.4296674,0.2864895,0.636437
0.18191174,0.13194114,0.2083195,0.21517947,0.37164316,-0.027562415,0.11495131,0.25687551,-0.32714117,-0.53800106,0.4858619,0.42722982
0.14642541,0.046727728,0.184746,0.092868015,-0.33617207,-1.3406577,-0.49403715,0.33084428,-0.6413848,-1.3589776,0.2411665,0.45965296
0.13472065,0.07956947,0.26054615,0.35030806,-0.31779748,-2.2390447,-0.17314792,-0.060033575,-0.24132454,-1.5054612,0.38522103,-0.6761031
0.19647935,0.20007671,0.15205011,-0.12841645,0.27224508,-0.7636118,0.32281572,0.5369896,-0.21645886,-0.9676908,-0.038466297,-0.14146227
0.11297273,0.099393815,0.29303545,-0.0016747958,-0.34965786,-1.4198074,-0.2118248,-0.24479164,-0.15464842,-0.8950062,0.0904659,-0.32689586
-0.038824145,0.115187734,0.19467057,0.26496297,-0.7079142,0.6843079,0.17658669,-0.21098539,-0.7751765,-0.32930052,0.25517714,0.6967674
0.09994702,0.072100975,0.18245572,0.44830915,-0.47937292,-0.5925395,-0.24906543,0.23608252,-0.68948716,-1.5017393,0.50930697,0.927782
0.20505643,0.11707366,0.13654391,0.006996122,0.18132812,0.62807566,-0.04127854,0.67539465,-0.48846284,-0.103155255,-0.005500473,0.77309245
0.304363,0.17176448,0.12507874,-0.045687675,1.1142249,-0.62779754,0.17285198,0.43602973,0.05481726,-0.22974849,0.6320248,-0.55883634
0.108655326,0.12732798,0.1866901,0.1990098,-0.06915949,-1.35054,0.1193285,0.34647375,-0.6186586,-0.8224137,0.25888592,-0.68017226
0.16710989,0.17567217,0.146156,0.14264563,0.27301013,-0.57058954,0.33205473,0.60050696,-0.392438,-1.5301372,0.21924722,0.67009395
0.037091147,0.1085788,0.21512237,0.74093264,-0.46808147,-0.66372234,0.25598,0.011683166,-0.50059897,-1.9934578,0.53951174,0.75980026
0.19170937,0.10472804,0.16369927,0.0046278723,0.04071249,-0.049215585,-0.111424685,0.5321299,-0.48751304,0.01910615,-0.0036430806,0.043198705
0.120924376,0.13244164,0.17672743,0.033520292,0.040345553,0.8665055,0.07438189,0.41307628,-0.6638252,-0.12729275,0.2907409,0.915492
0.31371742,0.011595391,0.15523252,0.3661265,0.39581993,-0.9434124,-0.3332807,0.4417308,-0.0040558577,-1.2454982,0.19758737,0.7516498
0.092946894,0.11123261,0.23071155,-0.20545214,-0.48996723,-1.8357052,-0.23231238,-0.01331304,-0.4997841,-1.4065831,-0.067790456,-0.12769955
0.27458194,0.065435685,0.21287137,0.1648111,0.6564467,-0.75552535,-0.22947615,0.19638014,-0.09064561,0.022795677,0.5681288,-0.4933227
0.013814386,0.09707698,0.19755085,0.4460422,-0.51621056,-0.26790822,-0.11876202,-0.17548901,-0.77168435,-0.852602,0.6094459,0.36526138
0.020688016,0.099763945,0.23176768,0.42728388,-0.4720528,-1.0177989,-0.047158837,-0.23532535,-0.5842354,-0.92455137,0.51052994,-0.3193736
0.109301046,0.17257322,0.1321683,-0.021848725,0.071559876,1.1106449,0.34673983,0.7231073,-0.6628454,-0.25726926,0.014949024,1.0205069
0.16599233,0.08156944,0.23997656,-0.13519177,-0.22668085,-1.2217195,-0.31449386,0.08610842,-0.31437707,-1.084664,-0.06266585,0.19921416
0.25543848,0.011701895,0.20514047,-0.017103113,0.1001971,-1.4267387,-0.48443058,0.3010531,-0.15666848,-0.771472,-0.08853148,-0.17615002
0.26772633,-0.011462307,0.26190114,0.3436375,0.014914657,-1.9971207,-0.45177853,-0.006781727,0.20606744,-1.668485,0.3025845,0.15602183
0.32716456,-0.006870024,0.05181265,0.62569845,0.60494703,-2.4784193,-0.3625432,0.8289314,-0.11916202,-1.1938436,0.2707942,-0.62525314
0.18541744,0.09082197,0.12707797,0.6015438,0.25927794,-1.4995782,0.0009249449,0.67271817,-0.58306825,-1.2472546,0.6152765,-0.14526999
0.029500578,0.12217806,0.18716165,-0.3224881,-0.8356034,0.4902527,-0.27508616,-0.09313482,-0.758797,-0.10563326,-0.029521681,1.0165625
0.17169453,0.19532038,0.18795148,-0.15581724,0.63552344,0.46731874,0.37441468,0.3301931,-0.28627807,-0.17736602,0.6085036,0.22137809
0.23341852,-0.01071419,0.25510055,0.6570198,-0.12808506,-2.512938,-0.42754138,-0.009558916,0.07345867,-1.4318311,0.6561563,-0.6756979
-0.037912183,0.101980574,0.18614064,0.7236903,-0.7614037,-1.4417633,0.28539455,-0.121478155,-0.7354803,-1.9691142,0.29239655,-0.18587756
0.29499754,0.056758966,0.15636256,0.6929815,0.3966496,-1.4532987,-0.11814982,0.40173984,-0.009067893,-1.3047025,0.59350705,0.23354512
0.10478063,0.15437359,0.2146985,0.10264157,-0.08050308,0.25336796,0.27215326,0.2265543,-0.4306708,-0.6631775,0.12500252,0.6324031
0.23590416,0.01871642,0.17546888,0.3009659,0.33584237,-0.07387266,-0.4445867,0.43184584,-0.42328364,-0.2641406,0.43885237,0.6867499
0.17822179,0.124914125,0.12707661,-0.014947789,0.33407182,0.7450802,-0.0088143945,0.7344835,-0.6686195,0.06413293,0.26863897,0.6866681
0.29012677,0.17506711,0.17481247,-0.09224046,0.5083831,-0.058756307,0.163845,0.3136087,0.1847024,-0.000818491,0.017649457,-0.24576008
0.18504298,0.045215275,0.24002992,0.24262765,-0.1135273,-1.0697222,-0.36744052,0.09675944,-0.27868146,-1.0394468,0.31057253,0.29886764
0.051596627,0.099501625,0.22888626,0.39985624,-0.43510866,-0.35793942,-0.046103954,-0.09447129,-0.55789256,-1.1084898,0.4287157,0.57967144
0.06552446,0.074240215,0.18151042,0.046699677,-0.7674193,-0.6949996,-0.61016834,-0.03269744,-0.8106807,-1.1877353,0.4764173,0.8904913
0.27493355,0.23628646,0.08134132,-0.7386564,1.0919356,0.56726897,0.36108238,0.5771168,0.037433922,-0.040786386,0.60889727,-0.20597053
0.13878639,0.1443465,0.13707304,0.5156675,0.19463234,-1.7642279,0.32562125,0.6325187,-0.53475213,-1.676077,0.5505415,-0.334855
0.1894148,0.118976265,0.14163557,0.37639302,0.10699336,-0.90194285,0.088936806,0.6214635,-0.4378518,-1.8227885,0.39595342,0.8879073
0.3177645,-0.08087991,0.057588182,0.8670161,0.6350307,-1.8650198,-0.60720056,0.79669565,-0.17522383,-0.4134071,0.42487645,-0.4830888
0.12654948,0.16314383,0.21615413,0.16170001,0.3995988,-0.06452564,0.36142522,0.19997266,-0.3735051,-0.5372989,0.5702511,0.11862308
0.09840383,0.12640718,0.17624655,0.5300497,0.19216388,0.12669778,0.29977274,0.35942358,-0.62601197,-1.1185396,0.6308565,0.9205695
0.044901267,0.09830379,0.18886077,0.1840518,-0.63211375,-1.5492339,-0.26291096,-0.014430538,-0.78781724,-0.97609174,0.36560816,-0.4948355
-0.001121819,0.12785093,0.250032,0.23729263,-0.5787387,0.016519643,0.28270727,-0.19893634,-0.44155952,-1.0456011,0.042081147,0.69642633
0.29921588,-0.09339233,0.10522961,0.77869034,0.2446596,-1.4799831,-0.62490684,0.6235735,-0.10107839,-1.1763852,0.46130902,0.5407637
0.10213765,0.10232018,0.25425854,0.18564363,-0.4087754,-1.6312431,-0.10150027,-0.0660997,-0.33980325,-1.5298712,0.2105014,-0.08185512
0.15610525,0.122538924,0.2778045,0.39460185,0.2733723,-0.3139903,0.1388877,-0.112642616,-0.06694937,-0.8273407,0.5809061,0.39052993
0.18227755,0.13345441,0.13117927,0.3499256,0.17573282,-2.0108018,0.16123319,0.6797638,-0.46399555,-1.7950561,0.37956274,-0.3054618
0.20373392,0.07615328,0.29291427,0.25010422,-0.09549838,-1.3898914,-0.16703537,-0.14093131,0.13266838,-1.7433004,0.2658199,0.50734216
0.13985652,0.09921272,0.1893346,0.28379178,-0.040370766,-1.6976902,-0.060683787,0.33510268,-0.5795027,-0.93138826,0.35869563,-0.7466476
0.28728625,-0.004397692,0.10951835,0.24776772,0.40991387,-1.4984193,-0.46103004,0.7246963,-0.29167986,-0.52475584,0.04821369,-0.45553628
0.098848835,0.06874133,0.1608575,0.5987258,-0.343166,-1.5082332,-0.21153936,0.34183663,-0.79138476,-1.3342469,0.65156794,-0.21654981
0.0888909,0.16424312,0.24146228,0.030449351,-0.050149288,-0.41203275,0.3439008,0.0802007,-0.34001163,-0.05828309,0.20266515,-0.69994146
0.16944253,0.04484792,0.28391114,0.62153137,-0.20012282,-1.6196105,-0.26151547,-0.17340541,-0.0120898485,-1.4011612,0.65786535,-0.0836333
0.2664817,0.07574807,0.21826206,0.48412398,0.2737164,-0.8659896,-0.086699426,0.17498633,0.058157563,-1.3322061,0.45042634,0.6733535
0.25846282,0.07731249,0.20660612,0.58049536,0.16633585,-1.2709093,-0.05616367,0.22083083,0.031215847,-1.6012528,0.5597425,0.50897485
0.35105452,0.05284941,0.08968586,0.83925045,0.8926568,-2.0374205,-0.1456728,0.54855597,0.07977736,-0.6795099,0.5885173,-0.657754
0.16973579,0.11171996,0.305406,0.39588088,0.20290972,-0.19622464,0.063936055,-0.23469697,0.11384314,-0.9400946,0.50370467,0.69584996
0.3266201,0.04453455,0.13528879,0.8091752,0.6968744,-2.0073333,-0.16408357,0.4240324,0.039515555,-0.8226806,0.648467,-0.5891778
0.213022,0.060326263,0.19573425,0.21554345,0.37104055,0.30737576,-0.29705334,0.31389016,-0.4378201,-0.16272306,0.5484491,0.8021973
0.1569136,0.14120139,0.18489408,0.58489513,0.1573434,-0.4932822,0.29554182,0.3556046,-0.3102749,-1.6521008,0.6054951,0.9248449
0.280291,-0.015411807,0.24622254,0.120593295,0.1980715,-1.2441376,-0.5166713,0.079033464,0.12874532,-0.2224133,0.024240017,-0.49249822
0.21390633,0.07866035,0.1982683,0.10441633,-0.0006648098,-1.8138304,-0.19645602,0.34243852,-0.29480106,-1.835009,0.10623072,0.22004426
0.1772835,0.049168758,0.27656513,-0.21179318,-0.15842745,-2.453442,-0.52764994,-0.10101415,-0.15170509,-1.6528128,-0.10041834,-0.24338663
0.2358918,0.1309274,0.13949344,-0.016268525,0.28961122,-0.4879437,0.020710528,0.6152462,-0.30525798,-0.44876492,-0.022297211,-0.06377095
0.09382876,0.083204426,0.18274437,0.015362463,-0.47784296,-0.8515122,-0.4006905,0.1907151,-0.77710587,-0.93030655,0.24172372,0.41822094
0.17906532,0.13339588,0.15678,0.020162165,0.23755987,0.37055838,0.05508411,0.56197286,-0.5263766,-0.16185951,0.20319879,0.480326
0.31434134,-0.0761044,0.12293117,0.8068816,0.6401258,-0.36358005,-0.607138,0.52505934,-0.11574149,-0.24816191,0.58138144,0.80527955
0.14756872,0.1175086,0.13157076,-0.08143039,-0.03448905,-0.7566219,-0.09034586,0.7240535,-0.7502077,-1.3728721,-0.07948321,0.70902103
0.09001332,0.10206725,0.2684376,-0.060899604,-0.35608336,-0.37561318,-0.27746996,-0.21412109,-0.3640643,-0.18474531,0.22301939,0.08571637
0.14506738,0.077072054,0.215972,0.0012655222,-0.16829185,0.15465486,-0.34613326,0.1657986,-0.5319078,-0.27419364,0.21587497,0.76421756
0.2259108,0.11337682,0.13043088,0.13128155,0.51622826,-1.0870204,-0.024832726,0.66396576,-0.46967185,-0.3068812,0.34285513,-0.71024126
0.16062446,0.037810624,0.11486879,0.31342497,-0.24894999,-2.7970963,-0.43221605,0.80867285,-0.78962153,-1.8713969,0.4029408,-0.52930427
0.22570421,-0.0020319745,0.29074788,0.48544452,-0.03163501,-2.3592086,-0.45787483,-0.1553706,0.15149224,-1.1738772,0.48787928,-0.73618025
0.22987479,0.022694599,0.2591913,0.32852063,0.37011677,0.26309806,-0.43679643,-0.012613088,-0.11344999,-0.20943987,0.61249447,0.9632333
0.18998113,-0.017402206,0.16359083,0.41572803,-0.21062312,-2.5742497,-0.6265599,0.49021113,-0.5455275,-1.3237854,0.4738949,-0.681419
0.05311818,0.13343465,0.20703761,0.25592104,0.039346945,0.044290207,0.32611567,0.13955793,-0.6454491,-0.53030574,0.5220305,0.18764997
0.019670809,0.10383171,0.19821471,0.83057886,-0.42490503,-0.7306467,0.3119732,0.04398656,-0.60254675,-1.9115604,0.57639736,0.51471776
0.056660816,0.11689114,0.26021644,-0.019012367,-0.3465428,-0.32185674,-0.137732,-0.2434053,-0.44777095,-0.0852741,0.34645322,-0.105620384
0.15876217,0.078365035,0.22731918,-0.049679928,-0.16145577,0.58706033,-0.32597852,0.13753352,-0.4256242,-0.04238093,0.11940895,0.95871156
0.08828893,0.16306281,0.3019289,0.061423875,-0.16849314,0.070357084,0.3329733,-0.21071438,-0.002141893,-0.070649624,0.033715755,-0.19740903
0.12571701,0.16176152,0.1392617,-0.0021835878,0.050698183,-0.38819906,0.25560778,0.67833024,-0.63373375,-1.1331644,0.0118166655,0.48954087
0.12291843,0.08486741,0.2558955,-0.004841505,-0.37831834,-0.68769,-0.31174248,-0.069955155,-0.34597787,-1.1210345,0.12134172,0.72305566
0.2627148,0.1622239,0.1958592,0.22786497,0.8172794,-0.63068616,0.20087767,0.21860832,0.05862403,-0.5585027,0.5948734,-0.12702411
0.1010239,0.124587245,0.16306147,0.16247846,-0.24104722,-1.2184525,0.075623214,0.47966802,-0.7108651,-1.739933,0.1410771,0.4099403
0.060394082,0.10699041,0.23815465,-0.22714946,-0.60259706,-1.5229424,-0.40335548,-0.2295797,-0.53659934,-0.38337862,0.13898331,-0.685796
0.33465245,-0.013431832,0.12876284,0.53664106,0.38852367,-2.3275864,-0.3615329,0.49020088,0.09336853,-1.5802147,0.31370273,-0.18286937
0.15991099,0.17151359,0.22625059,0.33487383,0.33159003,-0.37005886,0.38277876,0.16715786,-0.12719452,-1.2197418,0.45167154,0.53209
0.08517809,0.102746576,0.26618403,0.1445367,-0.4036878,-0.51118666,-0.13960782,-0.17406256,-0.33856255,-0.9845619,0.2249693,0.53483826
0.21722703,-0.026150908,0.14153504,0.5708904,0.14742076,-1.4626558,-0.6094883,0.59955996,-0.5693232,-0.72340953,0.56459624,-0.08059937
0.24165753,0.07445791,0.1128182,0.15419467,0.26904407,-2.4131498,-0.19292119,0.7749242,-0.43990234,-1.9719406,0.10266572,-0.21143705
0.19758402,0.14080179,0.11537969,0.09124796,0.33913842,-1.6636975,0.11314666,0.7749818,-0.5045512,-1.1279804,0.13648975,-0.6163596
0.16770299,0.14816466,0.12894794,-0.0052420297,0.16351907,-1.5679601,0.13449496,0.73051727,-0.5712887,-1.362761,0.0170722,-0.33879063
0.22671753,0.020010795,0.20354548,0.5371762,0.087945014,-0.980308,-0.35194135,0.26925802,-0.26162642,-1.0592453,0.53985745,0.4569412
0.18445295,0.053845286,0.23085956,0.37043342,0.06246927,-1.7427208,-0.29136884,0.12393457,-0.33765614,-0.74304676,0.5064168,-0.73339814
0.098445445,0.08915511,0.16340584,0.4548394,-0.3726593,-0.6144133,-0.08822107,0.39437598,-0.74201494,-1.6209118,0.45582676,0.92604727
0.17581715,0.03701665,0.2443639,-0.06299096,-0.21854788,-1.0699848,-0.53674257,0.062839866,-0.30709714,-1.1739168,0.06298852,0.6404657
0.18782611,0.054655142,0.18128595,0.47433373,-0.15139417,-1.7011629,-0.22575793,0.39087772,-0.42157078,-1.6106826,0.49405593,0.09088147
0.3066918,0.11511011,0.19142492,0.26925403,0.8536821,0.50106215,0.0031331778,0.21280155,0.12870455,-0.34215677,0.55635935,0.9977818
0.022943892,0.11212058,0.23039338,0.28916678,-0.75961375,-1.9904679,-0.0022517443,-0.16486499,-0.5160549,-2.007372,0.23195124,-0.17304695
0.119554594,0.13818839,0.27807856,0.54798913,0.118282646,-1.1425545,0.33060348,-0.12287557,-0.037029564,-1.4215009,0.5628024,-0.064018786
0.2431173,0.09223205,0.19007933,0.2139415,0.28679883,-0.40045047,-0.091983676,0.35871458,-0.20018941,-0.8716223,0.23309842,0.60848325
0.15313382,0.09077021,0.26174128,-0.10885972,-0.28060132,-0.7831187,-0.2613845,-0.03326434,-0.22692925,-0.6459348,-0.0486698,0.14343315
0.09324829,0.067502916,0.22179323,0.35293418,-0.61428833,-0.8786112,-0.35667703,-0.014432251,-0.5260776,-1.5363837,0.48500115,0.7650061
0.06872767,0.105141655,0.19317243,-0.47035024,-0.66651976,-0.85338205,-0.5224493,-0.058456644,-0.7355299,-0.31739104,-0.0005599186,0.15204412
0.15002213,0.13190079,0.14925236,0.029923744,-0.008421221,-1.2974129,0.054504097,0.6160002,-0.6176175,-1.8496506,0.030601725,0.49758393
0.018761057,0.099957004,0.22497636,0.55146253,-0.61175835,-1.5627674,0.031338274,-0.16943789,-0.55856264,-1.5090036,0.42409104,-0.42586464
0.30596286,0.072103485,0.2027737,0.32502517,0.73577213,-1.200017,-0.14955226,0.19524509,0.082322896,-0.2725643,0.52137965,-0.63087034
0.23458081,0.010018092,0.29180914,0.5512309,0.21011695,-0.29139435,-0.40011767,-0.177849,0.15415138,-0.75953674,0.60301214,0.92282456
0.24517402,0.09103842,0.15252644,0.4858511,0.5526814,-1.5030493,-0.043606877,0.49598354,-0.31972218,-0.75027466,0.58089894,-0.53211546
0.0992661,0.0557338,0.26959997,0.43040106,-0.49151725,-2.0057633,-0.42567837,-0.24396965,-0.30127734,-1.2469238,0.5931411,-0.60008186
0.18287314,0.06281717,0.14447159,0.11706786,-0.012196944,-1.8853636,-0.32633916,0.64169466,-0.6586308,-1.2139357,0.122545674,-0.3467768
0.29427227,0.14755505,0.1467182,-0.07808339,0.49543518,-1.0162965,0.066251755,0.46294463,0.040828228,-1.4636903,-0.037222296,0.35186392
0.18218096,0.1771685,0.28143302,0.016498288,0.12485811,-1.0967623,0.26938516,-0.07628502,0.17816347,-1.2885004,0.050960347,-0.07411903
0.2164386,0.03780783,0.13604228,0.7003708,0.1267193,-1.673935,-0.2383759,0.60047865,-0.481115,-1.2730255,0.66700774,-0.07638043
0.15223983,0.023719,0.25853497,0.32429942,-0.14508726,-0.5269746,-0.5831618,-0.08631611,-0.34312695,-0.6633557,0.59041774,0.61819035
0.11232007,0.13825025,0.30108893,0.015832912,-0.27122927,0.13709709,0.10148299,-0.21975905,-0.018026054,-0.34189165,-0.03570208,0.3767782
0.20469016,0.1346816,0.2242908,-0.011379843,0.06520667,-0.92901766,0.042105258,0.209672,-0.13508636,-0.76532924,-0.012417868,-0.20648569
0.070883475,0.10174065,0.22187898,-0.17233399,-0.44635665,-1.2616274,-0.44748005,-0.15033355,-0.6555196,-0.14452076,0.33490008,-0.64979297
0.2858336,0.039877567,0.1342201,0.30333802,0.72268176,-1.0862653,-0.30764142,0.56952775,-0.3081509,-0.027047515,0.5117285,-0.6342496
0.3083316,-0.037728615,0.17643248,0.31981215,0.5132872,-0.17525272,-0.5414138,0.35743624,-0.031209469,0.06855321,0.27124226,0.37906152
0.021923963,0.1242363,0.23965813,0.19522272,-0.5508546,-1.0275748,0.14429748,-0.13823393,-0.49932495,-0.95689476,0.10824403,-0.29924107
0.25135374,0.08340079,0.0856089,0.57449925,0.70026124,-0.06809277,-0.07576233,0.8198262,-0.4666692,-0.727674,0.5819016,1.0242732
0.34612346,0.05895488,0.112916134,0.4480849,0.9173828,-0.025091533,-0.17281696,0.5066128,0.049790084,-0.28905094,0.44580853,0.70022863
0.18065724,0.09248942,0.21861029,0.32829848,-0.019515041,-1.7042564,-0.06996709,0.21473938,-0.29902548,-1.3200026,0.33988255,-0.33151305
0.19242838,0.17629674,0.18728834,-0.09453518,0.51947933,0.62284005,0.25285256,0.355785,-0.27700287,-0.10355854,0.44881612,0.45028323
0.3784898,-0.0048084054,-0.0005345866,0.7135607,1.024569,0.0967139,-0.34484452,0.82402295,0.13201183,-0.14765668,0.21320105,1.0197108
0.28570965,0.21085835,0.037780926,0.30151397,1.2858114,-0.6450441,0.35203695,0.71747017,0.030495942,-0.7307236,0.66013867,0.15903527
0.17568919,0.03660345,0.23712763,-0.057810802,-0.16136628,-0.87915206,-0.5508412,0.09555477,-0.36208335,-0.34538937,0.105051175,0.01701343
0.35368645,0.02768121,0.15688872,0.3756758,0.8908052,-0.9883197,-0.28220898,0.31934166,0.16463941,-0.011302233,0.4620322,-0.5124247
0.14262147,0.14274256,0.12216747,-0.104420796,0.055097677,-0.6057703,0.074507594,0.7887525,-0.7220039,-1.53359,-0.09992013,0.8470958
0.2676779,0.101788804,0.08713633,0.042577952,0.42254317,0.66774243,-0.0893513,0.83453816,-0.3100515,0.020784855,-0.09995851,0.7459927
0.062853426,0.11175963,0.18287128,-0.08405314,-0.59367824,-0.48363802,-0.20878151,0.13924545,-0.7764369,-0.875602,0.062378287,0.61076814
0.36516917,-0.08813608,0.083322585,1.0216691,0.7087343,-1.197758,-0.53744555,0.5221744,0.1857574,-0.48925912,0.4945507,0.33334917
0.055203117,0.14032833,0.20623243,0.13223813,-0.28126666,0.25040233,0.25317556,0.17498353,-0.6079434,-0.39656448,0.13793144,0.3634706
0.16276349,0.09114275,0.14375216,0.05803167,-0.054239422,-2.1945052,-0.19618684,0.6446927,-0.69387525,-1.4646991,0.0678035,-0.53685266
0.30480674,-0.040016253,0.1019419,0.8915995,0.4874961,-1.1006584,-0.46011624,0.6312157,-0.18376487,-0.778682,0.6197534,0.48255414
0.0026486795,0.12782747,0.19119234,0.14747132,-0.44976398,0.48773062,0.23566878,0.055473924,-0.7872863,-0.104967594,0.26216558,0.3131581
0.2663979,0.23965044,0.13909483,-0.67545366,0.95272005,1.3020263,0.3662746,0.36646193,0.12150669,0.08055806,0.6145455,0.48286968
0.13217717,0.07553108,0.15861599,-0.072998725,-0.31903017,-1.4447277,-0.40583515,0.47405177,-0.7820846,-1.7920511,0.06173791,0.7555441
0.12168394,0.1468733,0.22799426,0.027757786,-0.22260919,0.16686848,0.15793216,0.16128671,-0.33638895,-0.16151011,-0.04970832,0.16804713
0.1240045,0.059743837,0.21027918,0.009815954,-0.48294562,-1.2529178,-0.48963666,0.12859836,-0.5726071,-1.5088613,0.22849414,0.6915539
0.12424265,0.0675799,0.26720777,-0.059252102,-0.28877226,0.10660368,-0.5109217,-0.16724484,-0.35087508,-0.36619747,0.2533057,0.96891326
0.36403102,-0.06482001,0.04209426,0.61116767,0.69995713,-2.1143067,-0.5096845,0.7331146,0.12867296,-1.1587185,0.07517445,-0.1847232
0.26146567,0.067533374,0.1201381,0.0656736,0.34792784,-1.7686851,-0.23533991,0.712561,-0.35982633,-1.6001861,-0.019516766,0.07490945
0.062422447,0.11940026,0.25699157,0.02441639,-0.14487325,0.13700406,-0.06611818,-0.20999594,-0.47905293,-0.064733505,0.5469566,0.25425023
0.05943533,0.14975524,0.22357482,0.047919713,-0.37425864,-1.3963268,0.26677954,0.10601652,-0.48278782,-1.6309737,-0.053491108,-0.031028986
0.24471816,0.075904846,0.21242374,0.5226801,0.0002797595,-1.5264186,-0.07399523,0.21065259,0.013013244,-1.8743496,0.5488048,0.48175436
0.33273444,0.0030373568,0.15914965,0.17093885,0.45122343,-0.67991316,-0.38145405,0.39904428,0.10451698,-0.71089804,-0.031047061,0.44656736
0.22260848,0.10628206,0.17981857,-0.040706847,0.11265856,-1.8100246,-0.10339886,0.43514526,-0.30098528,-1.1039364,-0.058068357,-0.6084666
0.13361526,0.086008556,0.20700619,-0.24080563,-0.37491047,-1.9489216,-0.38360268,0.18198726,-0.5543843,-0.8144579,-0.09464833,-0.69191253
0.16522698,0.05859562,0.16331941,-0.080819,-0.16179425,-2.1715693,-0.456524,0.50106263,-0.68198276,-1.9862511,-0.0005507767,0.2778074
0.08988494,0.07864825,0.22512446,0.06687093,-0.2513523,-1.4712968,-0.5417656,-0.14784092,-0.6658149,-0.3072554,0.6527762,-0.70814174
0.23686998,0.13463305,0.14484692,0.12444286,0.5499766,-0.9987744,0.076372504,0.55981284,-0.31448108,-0.46163583,0.33250615,-0.5595833
0.30698702,-0.064611845,0.14336243,0.60533786,0.047187824,-2.8207865,-0.5167685,0.44995558,0.07727796,-1.8502816,0.51196045,-0.3059964
0.18667077,0.12421473,0.23252672,0.014687426,0.31750622,-0.060354967,-0.0017948151,0.13912219,-0.27131915,-0.030798078,0.44994426,-0.026329577
0.2038622,0.1184929,0.21989238,0.3903415,0.21427476,-1.3697318,0.08513993,0.20228094,-0.15015864,-1.2411535,0.4231646,-0.16058803
0.033544693,0.09496562,0.21472636,0.31672788,-0.8501937,-0.62680566,-0.2624627,-0.18269828,-0.6034048,-1.6504624,0.40572637,0.9710012
0.061351016,0.11023753,0.262163,0.2749292,-0.4922229,-1.7064402,0.0003273487,-0.17975199,-0.34433034,-1.5072098,0.24193275,-0.33394912
0.041879315,0.12497236,0.23879546,-0.20010503,-0.6649955,-1.5857102,-0.14271736,-0.18984829,-0.50170976,-1.6339548,-0.06724626,0.28443235
0.0534268,0.12644444,0.27808696,0.0018831172,-0.55418366,-0.6496582,0.013073385,-0.25769943,-0.26333177,-0.15801704,-0.033550575,-0.5038364
0.23939055,0.115781605,0.26369345,0.15743044,0.35900187,-1.2760514,-0.001371026,-0.010269612,0.116645336,-0.5270872,0.29511762,-0.7109538
0.22001708,-0.004964059,0.22643499,0.6259557,-0.23223369,-1.3153421,-0.42597368,0.13325155,-0.09755522,-1.5743113,0.66149664,0.62174255
-0.03215216,0.109957315,0.22796841,0.4666166,-0.52770436,-1.1384066,0.3739047,-0.20593524,-0.5839906,-0.9843931,0.21523002,-0.72930336
0.26004463,0.089862056,0.12501319,0.021380486,0.30274573,0.26086456,-0.14659691,0.6787211,-0.303882,-0.31314015,-0.07591395,0.71945626
0.21328083,0.008990291,0.24175234,-0.07102307,-0.05460632,-2.50948,-0.5960885,0.11492941,-0.19939399,-1.5487401,-0.028006539,-0.36152753
0.2033041,0.097289436,0.28608638,0.30379188,0.12507194,-1.5208588,-0.04811877,-0.11337148,0.09158319,-1.0686972,0.3377427,-0.38812652
0.09840689,0.16058835,0.11775032,-0.039011706,0.006151588,-0.2663149,0.27612674,0.82349545,-0.7880682,-1.0866535,-0.04051228,0.5434566
0.16739096,0.15460482,0.24512199,0.2771552,0.061874222,-0.6776614,0.25377476,0.094576865,-0.060115337,-1.7189853,0.28689516,0.8011033
0.20130497,0.08351427,0.25402975,0.33361483,-0.0705715,-2.1870923,-0.10577673,0.044094175,-0.05136615,-1.6571891,0.34002268,-0.43725717
0.12164377,0.09171479,0.28646564,0.004161142,-0.380289,-1.1918228,-0.2531601,-0.2040025,-0.16914982,-1.5214235,0.09698027,0.5636695
0.07165213,0.13776256,0.2591263,0.076872006,-0.2955291,0.6234304,0.16754788,-0.07964131,-0.33953452,-0.2051394,0.117442936,0.64454097
0.054019935,0.13409364,0.20320913,0.17501655,-0.17225392,-0.7019781,0.240035,0.16721436,-0.6586519,-0.42918754,0.30731547,-0.559196
0.04116298,0.11790126,0.20066394,-0.18938279,-0.5901765,0.06954188,-0.29149675,-0.11296913,-0.7510842,-0.0412544,0.24796712,0.4555326
0.2081114,0.17276697,0.19260062,-0.15543729,0.4706651,-0.33177835,0.19861513,0.3309968,-0.21347296,0.124700785,0.3770174,-0.6952584
0.07468782,0.1101165,0.18470982,-0.18209481,-0.5842619,-0.41511357,-0.26060757,0.15331951,-0.7499796,-0.30522597,-0.01272887,0.20679873
0.15907021,0.19825247,0.18480241,-0.059016332,0.15645681,-0.6166259,0.37972486,0.40343118,-0.24738353,-0.31878483,0.011631191,-0.6819083
0.34351382,-0.060562983,0.074367516,0.9672695,0.6591549,-1.026733,-0.48642784,0.6411451,0.001363337,-0.6161648,0.5238123,0.54247445
0.25687736,0.16300675,0.07377851,-0.18409286,0.94757694,1.0573015,0.14285672,0.81025475,-0.33801496,-0.02103877,0.48748785,0.84357256
0.13204555,0.09133788,0.24757978,-0.029822169,-0.21719591,-0.7875094,-0.27242717,-0.008643538,-0.3941292,-0.1609149,0.18796581,-0.35696712
0.16309498,0.068004414,0.21970113,0.5154326,-0.056157786,-1.7413019,-0.16580358,0.15748972,-0.3807434,-1.156436,0.5708874,-0.49328482
0.22811854,0.058702398,0.25469226,0.30317822,0.33039346,-0.0846556,-0.2489368,0.024168104,-0.088269055,-0.41397536,0.5026223,0.62260836
0.26259696,0.054873653,0.25183386,0.09939302,0.44242984,-0.38504326,-0.29021603,0.042115957,0.02238524,0.09674692,0.38849545,-0.17043757
0.2657025,-0.04149096,0.1474158,0.61107236,0.38685092,-0.35433614,-0.5770991,0.52438056,-0.33284813,-0.48846424,0.53550273,0.85995406
0.19361192,0.060331345,0.22096334,0.25653043,-0.09878283,-1.8853681,-0.26125905,0.20775217,-0.29444122,-1.375134,0.27821022,-0.27362457
0.2692627,0.11233643,0.17076418,0.1109429,0.43596914,-0.39999947,-0.027789414,0.41889846,-0.1142028,-0.5804719,0.1622423,0.2466957
0.0177825,0.12578705,0.20360644,0.19516763,-0.44802782,0.7146624,0.19663608,0.035969198,-0.70293576,-0.4358884,0.20703316,0.87988585
0.35423684,-0.030606823,0.053317722,0.49782655,0.63220036,-1.9099914,-0.4264117,0.74483305,0.06361884,-1.8547455,0.11098604,0.58236927
0.20568727,0.05538629,0.17597991,0.5493694,0.27695104,-0.19484138,-0.2147071,0.39535403,-0.46548918,-0.7874124,0.65652525,0.868998
0.0721937,0.10426234,0.24855708,-0.26371804,-0.49931827,-0.5196128,-0.44953573,-0.25141466,-0.49238443,-0.01070714,0.18438229,0.0074938536
0.2066673,0.016270457,0.12560351,0.15509225,0.15766115,-0.1634598,-0.55298346,0.7574845,-0.68857706,-0.31354213,0.15413949,0.71698767
0.12946433,0.038542934,0.14151558,0.45169842,-0.6019278,-1.2650442,-0.43514928,0.5276714,-0.7445257,-1.9012125,0.64006716,0.8598891
0.3019715,0.0003931783,0.16083215,0.7867632,0.5426577,-1.2666193,-0.3356962,0.37338543,-0.07522333,-0.6983068,0.6762421,0.06801206
0.31275466,0.065798506,0.13648205,0.538169,0.4900284,-2.2985156,-0.111486316,0.4798563,0.01937282,-1.3428416,0.41984677,-0.59946316
0.11193354,0.11639597,0.27044165,0.32502717,-0.09924936,-1.2632585,0.08996332,-0.10075855,-0.22309405,-1.0426338,0.36409107,-0.37803447
0.24322556,-0.0235318,0.12887569,0.30850407,0.18173642,-1.3735874,-0.5913345,0.6955879,-0.46398976,-1.0073241,0.17497215,0.2707494
0.22217077,0.18640287,0.1387576,0.2932678,0.8410817,0.28355038,0.3553512,0.5010028,-0.18928587,-0.826097,0.6415141,0.965753
0.11245338,0.16215111,0.23922396,0.043899372,-0.15024951,-1.4275373,0.27618766,0.11324328,-0.27034068,-0.9858419,0.0011141449,-0.72126085
0.1702579,0.16139142,0.13172773,0.008621916,0.30555567,-0.9788547,0.2179442,0.69684285,-0.52600396,-0.5270916,0.14578345,-0.6620551
0.07762102,0.08867805,0.20402609,-0.03161137,-0.71677864,-2.8851538,-0.38240138,0.020925254,-0.6438315,-1.8445802,0.23378882,-0.7198419
0.27750775,0.10475825,0.21110265,-0.029177867,0.25974175,-0.7225704,-0.08750123,0.23069414,0.07379824,-0.81212366,-0.069683164,0.16550928
0.13851555,0.057341076,0.21565947,0.5745011,-0.55309796,-2.0537157,-0.2422381,0.12490669,-0.3627822,-1.9355421,0.66288054,-0.12118119
0.031986978,0.116119824,0.21079406,-0.0038353133,-0.69310856,-1.1867025,-0.14864632,-0.107906014,-0.6642516,-0.831033,0.124480635,-0.24242759
0.05059558,0.10983547,0.25223356,-0.09151447,-0.7121309,-2.0686557,-0.25720915,-0.25704783,-0.4253914,-1.8517115,0.10356149,0.03877771
0.1896561,0.112968534,0.18748394,0.27831033,0.26532713,-1.2338114,0.025217295,0.37476242,-0.39925525,-0.77364993,0.3992836,-0.45145866
0.17101952,0.18898988,0.24284086,0.06761718,0.3028863,-0.52627623,0.36822373,0.10240823,-0.018036604,-0.7667289,0.2438901,-0.11024332
0.03304816,0.12229557,0.1875147,0.012244405,-0.68109924,-1.4697824,-0.035292923,0.072704375,-0.75336385,-1.5679846,0.031729206,0.1179201
0.020049337,0.087328024,0.16423498,0.7395786,-1.0383118,-0.94635946,-0.2783772,-0.07771218,-0.7944446,-1.8870671,0.6375925,0.47845668
0.1938393,0.046624288,0.25301236,0.17144968,0.14567342,-0.84367466,-0.40466824,0.021552831,-0.26178068,-0.22610044,0.45252305,-0.2124942
0.09386802,0.101046935,0.24331203,0.4152438,-0.22301719,-0.96509206,0.0058113337,-0.03228651,-0.4118879,-1.1369157,0.44690347,0.027754009
0.15817481,0.13576467,0.1731607,0.09055264,0.24490666,-0.46797326,0.10623008,0.45870084,-0.54426074,-0.34577978,0.33973655,-0.22221464
0.18516153,0.027459582,0.28542587,-0.10969189,-0.172059,-0.9680057,-0.5847832,-0.12825473,-0.07852036,-0.980533,0.0055108964,0.60630506
0.23178457,0.13031773,0.100999236,0.30846927,0.76611865,0.3231734,0.09674227,0.75349885,-0.45292574,-0.57882404,0.547416,0.97861
0.19290473,0.031213647,0.18357974,0.0027553416,-0.08715476,-1.8295819,-0.5172191,0.40941685,-0.51589,-0.9572824,0.055587128,-0.35762095
0.20868269,0.14693698,0.2129868,0.03285592,0.123665094,-1.6270492,0.11304122,0.26060796,-0.12305409,-1.9459885,0.04978755,0.21112216
0.27621552,0.13720529,0.20374842,0.40839598,0.5647468,-0.41844225,0.13141453,0.19461125,0.15173328,-1.1207316,0.4636857,0.7665861
0.22376871,0.081649885,0.22399533,0.11561295,0.028108997,-1.1541271,-0.17075959,0.20995623,-0.14700633,-1.7101274,0.11014478,0.7318236
0.1633474,0.039833188,0.24164498,0.033458803,-0.12981893,-1.4041924,-0.5497526,0.043423057,-0.40159485,-0.35309136,0.28107312,-0.52081895
0.069191545,0.11759865,0.21684521,-0.01605449,-0.41633463,-0.35356355,-0.098131716,0.026029408,-0.6192516,-0.14090383,0.17904109,-0.11863834
0.23190519,0.19369155,0.14628206,-0.028994609,0.43176174,-0.9470526,0.28954852,0.51681674,-0.100494325,-1.501549,0.094615296,0.2785539
0.23089655,0.18705158,0.16427743,0.10864342,0.5885669,-0.39940584,0.30389822,0.4201358,-0.08774519,-0.88721955,0.3312901,0.26113385
0.20639572,0.020546723,0.10758948,0.5513602,0.36096737,-0.6625134,-0.44203973,0.8040791,-0.7494422,-0.5421643,0.6012817,0.43364078
0.29801208,0.18461628,0.1311547,-0.16392997,0.71269834,1.2419273,0.18913692,0.46565038,0.107690215,-0.010794163,0.15474147,1.0029502
0.24003975,0.06105019,0.21059091,0.57765496,0.30848375,-1.1741489,-0.14695853,0.21502572,-0.14625019,-0.9721155,0.6055518,0.05511731
0.18346086,-0.00839985,0.20571004,0.5675725,-0.33283517,-0.83969176,-0.53964084,0.2242235,-0.35927153,-1.4256638,0.6562834,0.982307
0.23573013,0.09131996,0.19347556,0.14532281,0.1993739,-1.1631098,-0.11558646,0.35444468,-0.21942693,-0.97206366,0.14352769,-0.052847385
0.2963659,0.18977615,0.051826157,-0.17983021,0.9461512,0.2289102,0.21958798,0.7591215,-0.017334282,-0.33874643,0.22644246,0.28650635
0.18011141,-0.015765347,0.2999536,0.5375872,-0.4323105,-1.8339756,-0.58366686,-0.24673833,0.12690693,-1.5699431,0.66730314,0.1572296
0.122868925,0.07843683,0.20878501,-0.04531703,-0.46072754,-1.9187177,-0.37029153,0.15661094,-0.5615062,-1.8994247,0.13039477,0.33615094
0.33175117,0.0761246,0.12943862,0.09793172,0.56881535,-1.0143893,-0.15174803,0.5060452,0.07021415,-0.9043635,1.2077391e-05,0.07037467
0.20123412,0.12389497,0.26914668,0.34137446,0.46839154,-0.76274383,0.09742916,-0.06463544,0.019156098,-0.6402663,0.6079329,-0.14618552
0.11006084,0.12183849,0.24715284,0.18039683,-0.19095255,-0.8931916,0.060483575,0.01914823,-0.3486901,-0.92741156,0.20691061,-0.07092625
0.1734906,0.10392982,0.27301943,0.025611484,-0.054480046,0.3177546,-0.1164636,-0.049955025,-0.10648286,-0.29334283,0.1099378,0.72437924
0.28613368,-0.014883218,0.118619815,0.34346202,0.41959658,-0.7315321,-0.48479375,0.67561,-0.28770518,-0.52780473,0.16403586,0.37138766
0.26254743,0.13936262,0.20216382,-0.03331072,0.29289365,-0.8942523,0.0482471,0.27119792,0.040411294,-0.80002224,-0.024988838,-0.15020317
0.14379355,0.056105655,0.24110973,0.20865445,-0.10376036,-0.98952055,-0.42837793,0.0019423962,-0.45004153,-0.5081135,0.4934126,-0.11706591
0.20962684,0.13632217,0.18278447,0.118764214,0.2509142,-0.41389972,0.090996265,0.4083972,-0.27290708,-0.9175892,0.17320535,0.43707854
0.05168063,0.11678282,0.24431391,0.24755001,-0.48533607,-1.6267022,0.060394883,-0.10280807,-0.44806224,-1.356517,0.19379559,-0.44551703
0.11307625,0.09268571,0.24080895,-0.19086611,-0.43795964,-1.560053,-0.3555655,-0.036621362,-0.44022286,-1.7010007,-0.013537645,0.5423749
0.35041058,0.14929263,0.018103939,0.10272899,1.0271708,-1.1980515,0.0901072,0.7551138,0.19441485,-1.0470862,0.1505036,-0.11467737
0.14358813,0.100754924,0.17724387,-0.11183355,-0.22077642,-1.6361988,-0.21589208,0.40852457,-0.63203144,-1.3014867,-0.061715,-0.09972745
0.28341597,0.08097449,0.19159752,0.13167831,0.31943724,-1.111649,-0.14247021,0.31970823,-0.005539477,-1.3030821,0.08180606,0.36766928
0.2529456,0.08939007,0.24034788,0.051440373,0.19989987,-0.76542693,-0.14079356,0.11756766,0.035467505,-0.40009093,0.05658923,-0.21768892
0.24868976,0.013840448,0.11194721,0.3128246,0.28907707,-1.8414434,-0.42830807,0.77840835,-0.48327434,-0.9823452,0.18124384,-0.36225024
0.031051919,0.11485122,0.18428431,0.0548083,-0.64277625,-1.12863,-0.12621361,0.021806866,-0.808103,-0.67227983,0.19218838,-0.3966616
0.10024972,0.15062146,0.24829529,0.1657585,-0.1600439,-0.815869,0.27197105,0.047986954,-0.2749104,-1.3396144,0.11748347,0.22542524
0.21398251,0.04188092,0.30962017,0.36806434,0.0345947,-0.9012358,-0.30540365,-0.23650059,0.20144868,-1.0894506,0.3845979,0.49401802
0.16181082,0.135989,0.15679286,0.09651797,0.5319311,0.16825171,0.11540139,0.5053411,-0.62845844,-0.23220074,0.65896505,0.30185825
0.26596105,0.044578858,0.12770315,0.37887222,0.23176569,-2.1324286,-0.2406249,0.64502764,-0.27724552,-1.6953064,0.30173126,-0.09596628
0.13076888,0.10285204,0.26235747,0.03525856,-0.3142931,-1.1486037,-0.14342433,-0.05287838,-0.25479186,-1.5605845,0.07744865,0.53780407
0.16319616,0.14844231,0.2876592,0.4714153,0.04264234,-1.1278431,0.28294617,-0.13722338,0.18741584,-1.8540633,0.48495966,0.46541876
0.1287448,0.08560225,0.22643974,-0.17237154,-0.37344858,-2.2196689,-0.37097743,0.073524594,-0.48454952,-1.6749854,-0.016664691,-0.13760835
0.27751437,-0.025619434,0.17265728,0.393071,0.011997573,-2.4280539,-0.47494164,0.4061625,-0.06755155,-1.944892,0.36829185,0.05274415
0.19164889,0.117401704,0.116077036,0.042144272,0.34231004,0.23394637,-0.032539546,0.7984826,-0.6385998,-0.15610266,0.18596777,0.43221432
0.06431614,0.1137484,0.25077832,0.41461244,-0.100461125,-0.4055484,0.16821986,-0.105174616,-0.42216527,-0.876765,0.51463574,0.1774798
0.097989626,0.072086506,0.25449568,0.4081786,-0.2711439,-1.0300046,-0.29205108,-0.16228822,-0.41881597,-0.8846078,0.6102327,-0.047094524
0.20839356,0.10272134,0.1350382,0.25666738,0.3721695,-1.1491362,-0.041920185,0.65994537,-0.52419543,-0.7282543,0.33852497,-0.3147838
0.12356019,0.087057896,0.1995005,0.02465644,0.057812538,-1.0859109,-0.3627907,0.13595974,-0.7324852,-0.0040898323,0.659325,-0.71909595
0.109336585,0.12915668,0.25887325,0.07817506,-0.048373826,0.7689972,0.07426512,-0.044767573,-0.32578424,-0.23475063,0.32468218,0.9137245
0.26545465,0.031925764,0.17026399,0.09341315,0.24153669,0.20620446,-0.36896622,0.46367252,-0.23639452,0.05708289,0.031408772,0.52922755
-0.01699043,0.13021621,0.21251485,0.12118061,-0.7440085,-0.84748566,0.24666011,-0.10917975,-0.6359486,-1.5274088,-0.079267725,0.41691726
0.17344646,0.20476748,0.14676459,-0.28517604,0.5385821,1.5729764,0.37134963,0.55489576,-0.38136825,0.09352732,0.42980045,1.0252814
0.2784141,0.20680064,0.13647287,-0.17945108,0.9130228,0.15327364,0.29319543,0.42395657,0.07876265,-0.29999912,0.4339288,0.10713208
0.07978193,0.090512104,0.22522894,-0.21267551,-0.67298335,-2.7221248,-0.46984255,-0.107767254,-0.55867374,-1.7400799,0.13742802,-0.48470482
0.29475638,0.12529461,0.11029175,0.0857571,0.7715985,-0.15320522,0.015085638,0.6235478,-0.14021206,-0.2474618,0.29795274,0.13281614
0.3153494,0.1404425,0.08459826,0.7379867,0.6527888,-1.9785955,0.16881299,0.5644762,0.1709261,-1.5975862,0.68045527,-0.01951313
0.1819041,0.118117236,0.30641338,0.34523875,0.28682098,-0.49325874,0.07876271,-0.23386568,0.15778607,-0.8174727,0.49399054,0.2818871
0.2253115,0.20458624,0.08760827,-0.25835064,0.6748753,0.7975022,0.3131464,0.7760164,-0.27481753,-0.012671709,0.21414986,0.4066561
0.0804337,0.13850567,0.16739695,0.09116238,-0.16581419,-0.31992334,0.18174142,0.43960035,-0.7437825,-0.441247,0.13735658,-0.0769186
0.28236362,0.13884778,0.086913645,-0.06420259,0.7515865,0.12651837,0.043292582,0.75067884,-0.21973592,0.07809472,0.2233448,-0.025113344
0.25192758,-0.011944564,0.157904,0.6960304,-0.05144082,-1.8662406,-0.39809746,0.45758462,-0.21165144,-1.5573437,0.6563673,0.15468955
0.11589518,0.065733194,0.24144216,-0.22880119,-0.43682882,-1.9199136,-0.6150368,-0.09111695,-0.4779892,-0.7336376,0.114130124,-0.5423448
0.20174403,0.045676883,0.24234408,0.5362228,-0.22129765,-2.1829724,-0.23488498,0.068805665,-0.083850265,-1.7278254,0.573417,-0.28567126
0.23182994,0.16583192,0.12925583,-0.11540464,0.36138642,-1.2229927,0.1522426,0.64007396,-0.25977707,-1.4721608,-0.05312723,0.065647066
0.07170713,0.10891586,0.25335136,-0.3473485,-0.598917,-1.9586293,-0.3947022,-0.2485029,-0.423824,-1.3847073,-0.04352419,-0.056023598
0.19406171,0.057607535,0.16741963,0.25948983,0.13015573,-0.28825375,-0.30011484,0.48872548,-0.5666976,-0.6428989,0.34840694,0.66358024
0.18933348,0.19270676,0.103876226,-0.051846735,0.38946858,-1.1006132,0.33224595,0.7872655,-0.3726126,-1.9287562,0.08393666,0.50216407
0.116962716,0.13265418,0.26787385,0.04475086,-0.22790432,-0.6094863,0.07359403,-0.06095229,-0.20955127,-0.5931488,0.048050374,-0.09869987
0.1934865,0.043292426,0.2961854,-0.08863283,-0.12906748,-1.7722998,-0.47272345,-0.16657889,0.017380238,-1.2723796,-0.020456232,-0.020003498
0.29707435,-0.04198677,0.20559579,0.45409366,0.26251096,-1.3314855,-0.51629925,0.22689348,0.07806754,-1.0003831,0.28952092,0.2843452
0.13419786,0.05915568,0.16147664,-0.030819878,-0.33990818,-1.9003432,-0.5056875,0.44373012,-0.78451294,-1.3764248,0.13914673,-0.03641486
0.2203052,0.09452064,0.12922144,0.064944275,0.5909214,0.48208544,-0.15549028,0.67244,-0.5914525,0.067334175,0.5132296,0.588569
0.14302345,0.08953397,0.16837476,-0.1284966,-0.24242367,-1.550178,-0.3050505,0.44818205,-0.6918396,-1.058206,-0.053445455,-0.16553527
0.13343693,0.0671879,0.2789636,0.420355,-0.4318212,-2.005583,-0.23435369,-0.16758013,-0.12296873,-1.72264,0.4813863,-0.21345216
0.23087695,0.08717129,0.11344196,0.06809624,0.29817548,-1.050873,-0.16747516,0.7879093,-0.497019,-0.8121834,0.020889774,-0.058759034
0.17172636,0.09555587,0.13594636,0.3969319,0.4058696,-1.3283794,-0.05076748,0.63073444,-0.70834243,-0.61204934,0.6218391,-0.59703505
0.18502837,0.053437304,0.17735839,-0.03370716,-0.10634379,-1.418427,-0.42230052,0.44193953,-0.5500823,-1.7725298,0.01320567,0.77749723
0.16633189,0.12435874,0.26513755,-0.041901115,-0.10602252,-2.5643182,-0.021465242,-0.0066835284,-0.11644149,-1.9596455,-0.042561997,-0.5785571
0.12255044,0.09857467,0.12840776,0.3630904,-0.23780991,-2.6656883,-0.036269605,0.70352507,-0.77258885,-1.9950837,0.39832675,-0.69093394
0.09716099,0.16472907,0.1236859,0.008372826,0.065390415,-0.91919816,0.33565748,0.7807793,-0.75220025,-0.7687515,0.042317793,-0.48540974
0.064023755,0.14805195,0.3007329,0.18181758,-0.18922216,-0.6772719,0.33577317,-0.24626096,-0.081241965,-0.88114226,0.13743831,-0.16662407
0.13653032,0.1624469,0.19150469,-0.005413713,0.1461969,0.86540675,0.25108713,0.3674252,-0.45713168,-0.13371778,0.23472139,0.74623734
0.11055048,0.109377116,0.19698904,0.33652034,0.15460317,-0.6011497,0.045282483,0.21643272,-0.64650095,-0.5736271,0.6604076,-0.12289965
0.32530063,-0.061462812,0.06702231,1.0701435,0.6320029,-1.742253,-0.50739086,0.70568764,-0.12490523,-0.57946455,0.65048313,-0.15215582
0.07655149,0.099789575,0.2172749,-0.08178643,-0.38969573,-0.64282435,-0.37730795,-0.07478325,-0.67343974,-0.19771636,0.362792,-0.07807261
0.2860709,0.05017563,0.11947249,0.13562375,0.44884586,-0.54727364,-0.2727089,0.67193174,-0.2588449,-0.008080721,0.054464534,-0.23538762
0.12865493,0.05625292,0.18876526,0.5236437,-0.50321275,-1.6275114,-0.28453523,0.25515425,-0.55385363,-1.7515649,0.60045415,0.17868215
0.24433516,-0.0062307604,0.26204702,0.6322027,0.19459449,-0.85637605,-0.43435627,-0.041864857,0.054239035,-0.8263403,0.6490957,0.47121233
0.07514864,0.11122218,0.26932016,-0.07005798,-0.32912576,0.6376781,-0.22121528,-0.25127277,-0.38413373,-0.02133274,0.29929313,0.8898496
0.18820328,0.1883528,0.25685498,-0.06817022,0.39406633,-0.52607,0.3109213,0.023555309,0.060688376,-0.1860609,0.31653178,-0.6620385
0.3324236,0.006833054,0.057038654,0.6662842,0.72579736,-0.55158,-0.31900403,0.78679615,-0.11187315,-0.77035654,0.3378317,0.88610584
0.18786748,0.16442293,0.27355567,0.24441889,0.5924712,-0.28525436,0.29401606,-0.09440254,0.10826033,-0.6505575,0.6242022,0.14893907
0.31293258,0.13437898,0.13896501,0.51960045,0.85581684,-0.40611303,0.10865694,0.39492506,0.11713469,-0.8661634,0.56125677,0.71340925
0.08910662,0.15022169,0.1935765,-0.024160653,-0.017408581,1.3106922,0.2201426,0.29651874,-0.62920535,0.08658004,0.32209414,1.0087721
0.32305992,0.16773492,0.09609349,0.010628059,0.75808096,-1.5220468,0.14728683,0.5575322,0.1662004,-1.3188148,0.112307325,-0.30485865
0.31836563,-0.021225043,0.08335243,0.28519803,0.5248514,-1.5042869,-0.4729705,0.7606284,-0.14720476,-0.4707185,-0.025385588,-0.48713592
0.16696642,0.14393139,0.1780521,-0.029161166,-0.018192284,-0.35479105,0.095508814,0.45202398,-0.4224449,-0.60077095,-0.05443215,0.15028131
0.34796053,-0.0007100962,0.06469258,0.3813874,0.7352539,-1.0045383,-0.36746684,0.7373316,-0.014364183,-0.18626499,0.09000446,-0.2959732
0.30249214,0.14014469,0.06933053,0.44457498,1.0242038,-0.45253417,0.11286163,0.7061599,-0.099029064,-0.6616546,0.5446318,0.46434325
0.34118006,-0.07252071,0.08420607,0.3996823,0.5882602,-2.046462,-0.5842321,0.66607285,0.029138505,-1.61745,-0.036091603,0.26470703
0.116638884,0.16124469,0.14517921,0.06535276,0.03800346,-1.7120456,0.2926728,0.64035904,-0.63030523,-1.4686999,0.07389757,-0.53440636
0.19876704,0.15343037,0.2616521,-0.016616702,0.4356136,0.18686558,0.14824855,-0.004983723,-0.008259892,-0.10946715,0.44907224,0.14407659
0.2531787,-0.02502845,0.12485151,0.72616625,-0.092424475,-2.4753587,-0.43878484,0.6104377,-0.2679745,-1.6710275,0.6957569,-0.27683398
0.12112741,0.15218183,0.21920638,0.053199064,0.38326004,0.43709004,0.25744796,0.15613925,-0.453085,-0.23203373,0.67056817,0.39918786
0.1464578,0.17121695,0.23613629,0.015008858,-0.0037029388,-0.030059332,0.27748126,0.14974135,-0.17328376,-0.70202994,0.02078253,0.39430362
-0.019932214,0.114150465,0.22430444,0.27075112,-0.3780197,0.98955,0.23934573,-0.23149173,-0.66426784,-0.33790874,0.4830724,0.965452
0.26435766,0.10403053,0.17939137,0.38360453,0.55484647,-0.9736067,-0.005069375,0.35236812,-0.11773664,-0.76180017,0.47463745,-0.056076527
0.18674378,0.14075537,0.16859487,0.5069647,0.059012227,-1.982689,0.22952104,0.44436884,-0.23872435,-2.013185,0.5669877,-0.13010019
0.16454194,0.058589626,0.17383155,0.6284032,-0.038273748,-1.1059917,-0.18794864,0.3856448,-0.55563265,-1.2289476,0.6688825,0.24324149
0.09156986,0.102986686,0.23540725,0.24501997,-0.29669702,-0.71863496,-0.07264054,-0.0025310814,-0.48346835,-0.92485964,0.32183576,0.17934322
0.28238687,0.066124536,0.23231085,0.30268446,0.20483977,-2.261383,-0.15562001,0.11746228,0.1763854,-1.7064677,0.2621726,-0.32939065
-0.024686083,0.123066396,0.2150378,0.17599215,-0.88469607,0.13343062,0.14060599,-0.22189412,-0.61192834,0.02198124,-0.06347142,-0.1133098
0.23395193,0.034042176,0.16909242,0.1947224,0.07537074,-1.6958241,-0.36678937,0.4897427,-0.36220238,-1.4801612,0.15435013,0.16833097
0.21722427,0.10849659,0.18061197,-0.008876582,0.095993795,-1.1461104,-0.0846473,0.43294197,-0.31135148,-0.5649867,-0.031584032,-0.4979314
0.3587559,0.0956949,0.08168066,0.16756627,0.88542974,-0.032254204,-0.07530433,0.5879012,0.1569249,-0.30306852,0.158216,0.44475335
0.30368963,0.058902323,0.06968306,0.5827478,0.46120286,-1.7019726,-0.1309925,0.7854356,-0.12986463,-1.6979655,0.44890076,0.41979355
0.23919818,0.20077357,0.16726437,-0.11060145,0.3579252,0.09402513,0.28491277,0.40677315,0.01603669,-0.01522994,-0.048896674,-0.195844
0.24269146,0.08273788,0.12508991,0.15262172,0.27765575,-1.8989291,-0.15356812,0.7034055,-0.3978697,-1.6317719,0.10293117,-0.07639849
0.22991696,-0.02366405,0.19299378,0.59750444,-0.00474363,-0.6597782,-0.5228083,0.31449503,-0.27460074,-1.109272,0.5788094,0.981507
0.05826933,0.11830431,0.2413005,0.49762684,-0.4083688,-1.5908012,0.21097457,-0.04004629,-0.38397163,-1.8680212,0.36938962,-0.11665779
0.071822286,0.12757361,0.20405453,0.101955265,-0.43114367,-1.3494691,0.07777065,0.17213404,-0.6014622,-1.7230444,0.060452566,0.2604162
0.33637035,0.0054031946,0.14382371,0.19105321,0.4833913,0.22117095,-0.36801812,0.4561277,0.08613205,-0.38696325,-0.027393289,1.0205212
0.11840524,0.11696585,0.20073454,-0.041255064,-0.3567371,-0.4230587,-0.08015275,0.25454932,-0.54463226,-0.15249193,-0.06958659,-0.18142289
0.051440425,0.113814674,0.23716487,-0.17318085,-0.6880414,-2.62215,-0.25981084,-0.1944206,-0.5109599,-1.5697153,0.034497917,-0.74314237
0.14899956,0.08506401,0.2937003,-0.19700304,-0.25533292,-1.1487193,-0.35153237,-0.2089605,-0.098284364,-1.5574998,-0.09096896,0.7997772
0.020057071,0.11094926,0.2164532,0.5824145,-0.5767203,-1.672458,0.21419209,-0.03786333,-0.55334264,-1.9505595,0.3685972,-0.2210486
0.29904276,0.06382485,0.23092727,0.1463115,0.41520742,-0.10522457,-0.20088106,0.11464268,0.18096066,-0.3447895,0.14917046,0.47891778
0.35831976,0.06510044,0.061608292,0.1339103,0.77146256,-1.4190013,-0.17712504,0.6963121,0.10663283,-0.8999156,-0.036558658,-0.2996148
