x,y,z,R,P,Y,t1,t2,t3,t4,t5,t6,t7
0.039232917,-0.16841045,0.103116974,2.771368,-1.1371623,0.8922111,-1.591655,-1.1611695,-1.7199332,-0.9812906,-1.0732212,2.4588044,-1.0452756
-0.07799581,-0.12404541,0.2480243,-2.150407,0.33952066,-2.4951427,-1.257709,-0.7698492,-2.184347,-1.1243082,2.344855,3.205043,-0.7231319
-0.36017072,0.17259794,0.02908758,1.6639507,-0.48540345,-0.7040816,0.6759665,0.43717194,-1.7769434,-2.2617912,-0.90252054,3.0511336,2.1354353
0.04213748,0.022563465,0.5049447,-0.9972246,-1.1243508,0.7155877,-1.8360052,-0.9474751,1.6323063,-0.8770139,0.5251076,2.357204,-2.0304787
0.17674156,-0.24674645,0.5977335,-2.6758451,0.8702159,1.0218326,2.3135135,1.1993489,1.4005988,-1.4322466,1.2089093,2.665452,1.193733
0.0186285,-0.348363,0.42570153,-1.6285365,-0.3009988,0.8497787,1.2193754,0.9224551,0.5281079,-1.5244724,-2.561242,2.1004596,1.3711793
-0.61353886,-0.53383225,0.43950075,-2.393765,-0.43411684,1.5858036,0.42129254,1.5658715,0.93507457,-2.8367243,1.9218452,0.30500108,2.5693138
-0.21796402,-0.027045742,0.25634006,-0.6984408,-0.63847023,2.7043774,1.9795444,1.0579624,-2.1186094,-0.42657852,1.1568577,3.6126506,0.82461953
-0.13394743,-0.0071099773,0.32808447,-2.795486,0.12754728,3.1038578,1.2532718,-0.947726,-1.100274,-0.5086167,-2.4558382,3.032359,-1.5603336
-0.12102051,0.6075891,0.35446006,2.8156807,0.5591956,-0.3050375,1.5507557,-1.2687742,-1.4132347,-2.9773245,-0.21133757,3.4536994,-1.1828579
0.32197312,0.6249161,0.50955427,-1.0141608,-0.045588937,-1.4467815,-0.6594243,0.38549495,2.363662,-2.9868977,0.920007,1.0966935,-1.1772006
-0.06171191,-0.18103662,0.5134163,1.6523122,0.9467137,-2.9954982,1.9800408,0.25157046,1.1752679,-0.9811039,-0.3903067,2.3148286,-0.620409
0.21416694,0.157585,0.064259134,-2.5298178,1.1210977,-2.2246425,-2.5807586,1.3687804,-1.5503681,-1.2966678,0.2277093,3.2314258,1.7077277
-0.23653927,-0.049113505,-0.026221827,1.1895337,-0.26122767,-3.0375514,2.427397,0.7236445,-1.9991252,-1.1540803,2.5410244,0.9731768,2.3979266
0.017225219,0.39797497,0.41707698,1.3872484,1.4551421,-0.33187166,0.51745224,1.008925,2.7556221,-1.0247617,-2.1352706,0.82613593,-2.4483407
0.052701235,0.062134355,0.24045649,1.0941657,-0.3417818,-1.7697502,2.4255292,0.00073838234,0.45120788,-0.12461996,-2.6409059,1.1382755,1.0523942
-0.43271762,-0.11072977,0.7922476,2.032195,0.71979636,0.41294074,2.7922337,-0.5628458,1.9812672,-2.105801,-2.0251129,0.69936615,1.66167
-0.10374655,-0.12341109,0.29816207,-1.9429687,-0.43124375,0.7803339,1.1760719,-1.1864781,0.13466287,-0.5340631,-1.8785324,0.72940665,0.9242482
-0.03033416,0.6037194,0.37176535,2.5799408,0.016596047,-0.08361853,-0.45976615,0.45769048,0.45961213,-2.9617734,1.0318956,2.4987378,1.4338334
0.04097841,0.28736565,0.723146,1.0386534,-0.14000879,-0.8456852,1.5022504,-0.8499255,2.018273,-1.611469,0.93881917,0.5124783,-0.3249855
0.19383371,-0.24352387,0.34515467,-0.2721575,-0.20942532,-1.6524751,1.8312109,0.13321638,0.18992543,-0.55174804,0.9540932,0.17613477,2.1092265
0.16896161,-0.30054498,0.14478697,0.7239539,-0.15644708,-0.8642669,-0.3552134,-1.5496455,-2.4604847,-1.0500658,0.05682826,3.2349205,0.14277029
0.49543595,0.47736633,0.108049005,-0.6074704,-0.16724518,-1.2233264,-0.391932,-0.31057775,-1.6751413,-2.7350178,-2.0573418,0.5470461,0.0825696
0.16436458,-0.52558315,0.50649345,-0.4151094,0.10147577,0.042181592,-1.0223556,-1.6308125,2.4232647,-2.6821144,2.836055,3.0017166,2.321161
-0.18416369,0.47706974,0.5896912,-2.4106083,0.79024804,-0.4088782,1.7099473,-1.1508037,1.5676692,-2.773832,-1.8117259,2.906167,0.8129158
0.11270102,-0.21203488,0.13399753,-2.105436,-1.0327212,-2.8477325,-1.3587298,-0.53061986,-1.8727977,-1.4109935,1.140271,2.5936894,-0.74687624
-0.2085002,-0.5063944,0.42287785,1.9597387,-1.1293002,2.6817462,-2.644009,-1.1004844,0.58950543,-2.4776385,0.60001373,3.6037085,2.2808158
-0.054573134,0.003681399,0.32185274,-0.18754922,-1.1513703,1.1995091,-0.36345553,-0.6731858,0.10767317,-0.09269714,-1.8235184,1.3187112,-0.9667226
-0.007712938,-0.0054122657,0.395313,-1.3483729,0.48848704,1.3117198,1.586767,0.14222193,1.5314906,-0.74221087,2.1295211,2.3200865,-0.85498285
-0.2804031,0.08237158,0.27408963,-1.0535551,-1.1928072,-2.046741,-0.9511205,0.988642,-0.37357402,-1.3451569,2.0551407,2.3578455,-1.8002796
0.03231035,-0.051991038,0.28240466,-2.1837893,-0.6314779,-0.97239745,1.7661965,-1.1705207,-0.74677515,-0.47658587,-1.4832987,1.2572389,0.67629266
0.1447154,-0.5430188,0.22532238,2.0607002,0.71336126,-3.0132809,1.1766789,1.6515887,-0.1456492,-2.0769951,-1.0336695,1.7949018,-1.4895341
0.38434523,-0.3014449,0.1605592,3.1160517,-0.7867059,2.1363077,-2.6519928,0.95804024,-2.5013144,-2.3299375,-1.6949239,2.9536784,2.4773476
-0.3713792,-0.17450646,0.3967061,-1.2990113,0.20673713,-1.6825098,-2.7975025,-0.6853894,-2.8673959,-1.6506294,1.4138434,2.9190214,0.13654923
0.29658234,-0.13157001,0.46714157,-0.57998633,1.2542382,0.6935207,1.7638061,1.3196054,0.64227796,-1.3507366,0.22475076,1.5094583,-1.2133869
0.038950615,-0.05763544,0.671861,2.3586297,1.0699079,-0.15994395,-0.28860927,0.84101367,1.2831695,-0.93333936,-2.8735533,0.054640807,-1.3727353
0.6125858,0.27928516,0.5778593,0.61153185,0.49938208,-1.242054,-0.97399116,-0.20205343,1.274307,-2.6209612,-2.7992558,0.68261695,-0.8238864
0.48836458,0.36427632,0.29945898,-1.2867942,-0.46112683,1.5694826,-2.2839227,1.1291261,1.1476638,-3.0216491,1.3068917,3.1682718,0.6277659
0.082756415,0.58976376,0.18567036,-2.1468256,-1.1746542,0.94782114,-0.8606956,0.704056,-0.9165678,-3.0203469,0.27463675,2.8456373,-1.9984725
0.07615292,-0.031622127,0.2661267,-0.9169762,-0.07770843,-1.1880181,-1.0944457,-0.009224296,-1.0006288,-0.2907598,0.60744,3.640844,-2.4465806
0.056177855,0.013708018,0.26256496,0.187927,0.007534311,-1.1747866,0.022771835,-1.4832139,-1.9137652,-0.24280214,-1.2442883,3.395916,-2.2569864
-0.3479077,-0.49361894,0.38928625,0.57087713,-0.09928407,-0.7286994,-2.3219333,-1.4617839,2.1123073,-3.0088077,-0.75090384,2.5379915,-1.4594357
0.21085134,-0.32257193,0.44276828,0.1834858,0.36974,-1.4205797,1.7285564,0.522233,0.388386,-0.97838616,-0.68456125,0.80743605,-1.9856768
0.124245115,-0.025881086,0.119464934,-2.1239123,-0.067012414,-3.072478,-1.947948,0.79511786,-2.1172538,-1.1490172,-0.35279846,2.9920943,2.507861
0.4045397,0.20955771,0.15864757,0.038601823,0.5948799,-2.9018228,0.9985945,-1.42843,-2.547101,-2.0576668,-0.18712783,1.4327681,-0.06946015
0.26291597,0.33922806,0.7829509,1.5241778,-0.9176285,0.15499304,-0.29624104,0.25929213,1.9278848,-1.9252887,-1.2351799,0.48076156,1.8154929
0.07317844,0.12447206,0.4993951,-2.0736728,1.4422323,-1.5106378,-1.5922583,-0.5309191,-0.17482686,-0.7573075,-2.0484653,3.482491,-0.45376897
-0.019977137,0.21197093,0.74044245,2.4899755,0.26410484,-0.87850523,2.1900284,-1.6588008,1.6004612,-1.4159689,0.60964584,0.84666425,1.0834992
-0.10247203,0.035704695,0.37394595,-0.13882576,0.64849627,-1.4356989,-1.3335994,0.838609,0.10522413,-0.79716086,-1.1969414,2.5260515,1.8810956
-0.29146737,-0.46044883,0.12146271,-0.413208,-0.44976094,-1.6322434,2.0638058,-0.13920963,-1.0400963,-2.379212,-2.3983405,3.7499504,-0.9300772
0.5730148,0.15973933,0.39877415,-0.41024524,-0.21198833,1.5860339,-1.9612769,0.38985658,1.4293835,-2.9011643,1.063005,3.0600533,-0.24598765
-0.21150392,-0.13244066,0.1276845,-0.75078243,-0.23597474,2.7310166,-0.76617146,1.4673243,-0.78143835,-0.84571123,1.432895,1.2436537,1.6585519
0.15881543,-0.46951255,0.028872335,3.085483,-0.16345216,1.8887564,-1.6886398,-1.1095612,-1.4105028,-2.163519,-1.111017,2.1646385,-1.9071484
0.29602805,-0.44147092,0.6625629,2.8098145,-0.33838233,0.15675227,-1.9771521,-1.3116574,0.90750146,-1.8915744,2.850547,0.9721582,2.0801122
0.15572807,0.29645795,0.84611666,1.1421254,-0.2998573,0.37405393,-1.6329906,0.8641336,1.126869,-1.6622787,-1.65752,0.18863888,-2.4901528
-0.50852567,-0.21281928,0.07876314,1.1269618,-0.88164794,1.5550717,1.2853553,0.56983113,-1.2359778,-2.3635733,-1.8653107,1.2583401,-0.6016731
-0.1953165,0.1419363,0.61253774,-1.5426575,-0.059330177,0.099407256,1.1816933,-0.42852163,1.1329224,-1.8065788,-2.1146748,2.5551062,0.1073246
-0.3894434,0.08575786,0.26161382,-0.5008673,0.0027941873,1.9437747,-0.2795484,0.11339307,0.07277155,-1.0087585,2.1284282,0.13457236,1.5145304
0.33861014,-0.4658743,0.6926262,2.0416517,-0.42874908,-0.705158,2.8125036,1.2043734,1.9372175,-2.2255147,-2.7546842,0.35815284,-0.19785118
-0.027034566,-0.0040536337,0.2725018,-0.44284922,1.2303104,-0.83554685,1.9747818,1.5834804,0.7048383,-0.14339757,-1.2090594,1.4391717,0.121329546
0.11099287,0.21944994,0.2049352,-1.1703949,0.843928,1.3168561,-1.2082045,-1.3344408,-0.21676564,-0.57744884,0.04379964,0.68723345,-2.0827525
0.15868562,-0.08605641,0.35120344,2.2414114,-0.16986027,0.4790919,2.1824348,0.3835013,-1.1370319,-0.6466739,-2.2815368,3.4209838,-0.7351327
-0.20568712,-0.25144973,0.03311164,2.3990903,-0.2334359,1.5816255,-2.1665335,-1.0540045,-2.0053148,-1.4982239,-1.5004587,1.2959616,-0.77673054
-0.042285036,-0.031686433,0.2182759,-1.4290601,0.3265951,-2.5195785,2.3223135,1.5308821,-1.92369,-1.0116341,-2.4283571,3.0489767,1.4220808
0.17261866,0.12156062,0.44737056,-2.610578,1.2784029,-2.647682,2.757857,0.10092652,0.81313586,-0.6921723,1.757232,0.64071995,-1.7872667
0.10848712,0.34406647,0.2461648,2.3020818,-0.9244557,-0.98721594,-2.214172,1.0177596,-0.22547078,-1.4424919,-1.6819608,2.8824055,-2.8072274
0.14444207,0.23755747,0.36305937,1.4309797,-1.2777902,-2.1346679,-2.3855643,0.6697302,0.5316694,-1.3870944,2.8278673,2.9378338,1.0117044
0.27667868,-0.039071158,0.6440316,0.8965592,-0.29226372,-1.6606878,-1.0341823,0.22624588,1.9981611,-1.5080833,2.1871202,1.1325576,-0.93723726
0.0973941,0.29581943,0.59846073,-1.750733,-0.39681798,-3.1002052,0.04618311,0.6343999,2.4975178,-1.3697971,-1.9380664,0.8359697,0.100497246
0.19339103,0.089127816,0.13872282,-1.2861228,0.26646075,0.009594349,1.5526264,1.670589,-1.0465089,-0.67818546,-2.3628035,0.72931945,-1.6993555
-0.15690333,0.38372654,0.5704937,-1.7750934,-1.412938,0.2810612,1.5445292,-1.4000546,1.08358,-1.854132,-1.1486609,2.5463657,-1.0437244
-0.0612848,-0.48679608,0.08509147,-2.8475626,-0.44756082,2.7377367,2.0021322,1.3101244,-1.839642,-2.2048154,-0.56549263,2.5141778,-1.8982155
-0.06934849,-0.035815194,0.40389842,-0.4670829,-0.14989008,-2.4290733,-1.6649119,-1.3560693,-2.6700091,-0.51210475,2.7009375,3.437052,2.136926
0.069837004,0.771142,0.25635508,2.8206394,0.29921982,-3.109057,0.07986474,0.017529726,-2.6693168,-2.8513894,1.7142828,0.22055565,0.63413954
-0.061317004,0.0077560693,0.41706687,2.8450503,0.2903389,1.5350655,0.13546538,1.5450847,2.0124242,-0.36790276,-0.7015364,3.2994776,-2.3786867
0.1463992,0.05625584,0.5097324,-2.0448513,0.7186367,-0.66766566,-1.352971,-0.7070339,0.5291047,-0.8913851,-2.2693105,2.8341682,-1.6045376
-0.68595546,0.3857575,0.14525831,0.43662167,-0.57609856,1.5697309,1.9434316,-0.64137244,-1.8076887,-2.7129643,0.99701023,0.13782382,-2.8645737
0.054105893,0.18847632,0.11529641,1.8134598,0.12915652,-0.5106657,-0.018118858,-0.63564575,-0.9127437,-0.9931097,0.37629533,2.7172503,-0.4527805
0.37677482,-0.0057614334,0.46378714,-0.6904868,-1.3526098,-1.250582,1.6459315,1.6924148,0.17550969,-1.0787877,0.75233984,0.7041899,1.3241484
0.2966516,0.12663388,0.30757266,0.730525,0.008362272,0.75531495,-0.78331685,0.62546897,-2.507568,-1.1388692,1.6885216,3.0848234,0.8496103
-0.16980205,-0.2168296,0.056131303,1.4045508,-0.36913744,0.35110202,1.2706378,0.95407295,-1.6170168,-1.8723631,-2.2170753,2.5321336,-0.14286804
0.08687698,0.4408474,-0.064700104,1.3061603,-0.30006164,2.960683,0.8027923,-0.7127756,-2.0353143,-1.9187667,0.93572617,0.843195,1.1224692
-0.14244889,0.10134047,0.31343922,-2.853422,0.007863145,2.2397146,-2.0443373,-0.23294783,1.0416014,-0.18337154,1.134731,0.14841998,-0.3090315
0.17832476,-0.20750022,0.4796415,-1.138553,-0.8687695,0.48841372,2.0782325,0.59099174,0.5445545,-1.4230568,-1.5526541,2.4153497,1.859257
0.3849346,0.3775926,0.5422797,0.49409893,-0.12735982,2.400447,-2.2354295,1.3104267,1.932482,-2.832346,1.8946831,2.898382,0.36293983
0.15497082,0.007990211,0.48570466,-2.7901683,-0.039253164,-1.3522557,-1.167216,1.7337625,2.2123725,-0.48482013,1.5466368,0.6996041,1.1339624
-0.25972268,-0.26665568,0.09986669,1.9308358,-0.2614861,-2.5656414,2.2790344,1.3289831,-2.637641,-1.4323933,1.6506088,1.65566,-2.4696336
-0.051547103,0.79189384,0.40039837,0.20262928,1.5399579,-0.15780526,-1.0095431,0.83758545,0.47778344,-2.9318898,-2.4081137,0.05461991,0.33689928
0.11884041,0.04025402,0.35161883,0.8295974,-0.6338235,0.5460749,0.80428433,-0.7626101,-1.9956234,-0.3827324,0.72750354,2.8734407,-1.2112348
0.21070468,0.12974682,0.26634964,2.9875593,-0.86995685,0.010630164,-2.0772636,0.12857318,0.1452725,-0.8817804,0.79449224,2.7185977,-0.17537975
-0.0142415315,-0.6246699,0.01628764,1.6433645,0.71414685,2.3093712,-2.0736573,-1.2278998,-1.2870206,-2.313353,-1.592077,0.7223332,-1.2599456
-0.0025606975,0.09682162,0.5216303,1.5895531,1.099054,0.8704025,-1.0075253,-1.3353232,1.2713144,-0.49737668,2.0384681,1.5929741,2.21114
0.45134944,-0.12018888,0.5604256,1.1168488,0.5205006,2.8243403,-1.9532969,0.724602,2.484864,-2.2436337,1.2855709,1.9629071,-1.2233843
-0.4181285,-0.31854337,0.24746239,0.27800545,0.470354,-0.48016945,1.724273,0.0980314,-0.111377,-2.4527977,0.2160914,3.3519528,-2.460272
0.050157562,-0.016842224,0.27229214,2.167326,-0.1944689,-0.5546175,-2.423909,0.39419174,-2.799607,-0.38199353,-1.9807448,2.2718692,-0.2400012
-0.006972369,0.56496876,0.492244,-0.5778073,0.814981,-2.4400392,0.062945604,0.12585104,2.6296213,-2.7552533,0.18437934,2.4990036,-1.3053567
-0.23044655,0.41912895,0.004367333,-1.41544,0.7149457,2.0261464,0.7914791,0.428262,-2.3851285,-1.7439604,-2.5549376,1.6075399,-2.591393
-0.002779007,-0.15446833,0.25196236,2.305317,-0.218796,2.0805633,-2.381146,-1.6856343,-0.8775511,-0.82296276,-1.6075009,2.1580079,-0.19896197
-0.11440255,-0.08970846,0.4390207,2.070687,1.2023407,0.76184934,-2.28582,1.3743656,2.3626616,-0.27788448,2.7479374,0.45083568,1.1392663
-0.021770429,0.1788174,0.5470262,2.9367764,-0.9906049,-2.1321054,-0.6878805,0.13446951,1.5987537,-1.0410213,1.9422686,2.9044597,1.093385
-0.039904565,-0.27533567,0.1470062,1.1979605,1.545551,2.6558113,2.408601,-1.3358141,-0.8353789,-0.97844887,2.891888,0.24007009,-1.6676701
0.24498199,0.054810118,0.52422154,0.6397252,-0.503838,-0.022189125,1.2315319,1.6808348,0.96501994,-0.61267185,1.3319128,0.5141112,2.5129187
-0.11207487,-0.6315264,0.54114807,-0.7583154,-0.8389957,2.8413382,1.4486458,0.8887217,0.64091134,-2.1247942,2.7259295,0.29301694,0.8474233
-0.58441824,-0.051293537,0.5609965,-0.22243664,0.15264381,-1.890826,0.11576104,1.3947477,2.071832,-2.8802087,1.8290012,3.3633504,0.53810287
0.06845964,0.14997718,0.28073958,1.7922057,0.6018875,-1.8805181,-2.8393967,-0.95746344,-2.4860346,-0.10714984,0.98716116,0.36901975,1.4652102
-0.08461054,-0.51991403,0.21437289,2.3411937,-0.89540017,2.3927753,1.7775714,0.90591,-0.33410788,-2.3783202,1.3975766,3.561415,2.2723892
0.27107006,-0.25139827,0.66260797,1.2858304,-0.58574104,2.0385833,-0.8991693,-1.6562035,1.3425295,-2.1026814,0.8124664,2.7346418,-2.6021204
-0.0319579,0.08517787,0.78599083,1.6047606,0.8333306,0.4045157,-0.09900522,1.6741571,1.6152675,-1.2671794,-2.5353281,0.68680584,-2.8701599
-0.084801145,-0.026204288,0.10928455,-0.9991915,-1.0575073,2.9461594,0.54182076,1.035048,-1.7231686,-0.8105917,0.8380611,2.3021672,1.6332729
-0.090290755,0.12035526,0.09314932,2.835132,-0.08478551,-3.014983,-1.903549,-1.3389246,-1.5972193,-0.5833807,0.14343405,0.27212393,-1.6801327
0.002584353,-0.04290348,0.3542595,-0.44416982,-0.9468523,-0.7952615,0.07655048,0.15254724,-0.36647582,-0.6810281,2.714145,3.1648006,-1.1419736
0.6027496,-0.21030085,0.088419884,-1.7200729,0.33972996,-0.47527447,-2.4473076,-0.20531547,-0.7101321,-1.9663329,-1.8311188,0.5292857,-2.403322
-0.18160295,0.14359204,0.28958005,1.3491282,-0.31176823,2.3317444,2.6763813,1.6277556,-1.2943408,-0.43850636,-2.2047057,0.52342296,2.5537536
0.010038262,-0.11207957,0.13182029,2.203516,1.326567,1.4713567,2.8768241,-1.6451073,-1.382321,-0.86316586,2.0333993,1.0194975,-1.0157405
0.12362759,0.75919354,0.11792006,0.009362147,-0.6610167,0.49645996,-0.839082,0.5732219,-0.9781947,-2.6414804,1.1806238,0.3699806,2.1448114
-0.04591149,0.13819954,0.16446802,-2.5205479,0.75737745,2.686156,2.716243,-0.023577094,-2.0234263,-0.42953324,-1.257508,0.8807856,-1.7461201
-0.057246152,-0.79877603,0.20648447,-2.4408154,1.0226265,0.7031735,2.805598,0.04670441,-0.7741053,-2.9296477,-1.1452216,1.1566945,2.7067244
0.10990735,-0.1728824,0.2200068,-2.8931892,-0.8576586,0.6867615,0.80225635,1.491874,-1.2835696,-0.39841413,-1.1450723,3.643472,-0.5629525
0.029295951,0.009039789,0.40217453,-2.1826715,0.16676857,0.73932636,2.5715106,-0.8422506,1.8341095,-0.8890085,-2.7656338,3.0269716,0.8415301
-0.031841017,0.034431316,0.37600923,0.6016896,-0.5000846,1.6142979,1.7934287,-0.29324687,1.9561646,-0.13819599,1.0138764,2.7577612,1.6159976
0.5300675,0.083048366,-0.07551791,-1.1281611,0.3079656,-0.9646094,0.48185468,-1.6548965,-1.7850277,-2.188091,-2.5256722,0.25770533,0.35120106
0.15550886,0.111429244,0.32428503,-2.7159104,0.4756147,-1.380119,2.7205036,-1.0824418,-2.0298705,-0.29853487,0.30889845,0.8395117,-1.8403622
-0.010634251,0.46787295,0.60718614,-2.4950242,0.86635053,-0.08848371,1.0488634,-0.790105,1.5749886,-2.507611,-1.2817128,2.9779022,1.3069036
-0.013598539,-0.097067684,0.28622723,2.694511,-0.6887679,2.5545192,-0.42023706,-0.46860838,-2.8685844,-0.9004004,-2.478905,3.6557932,1.3295419
0.39209205,0.24349828,0.17376666,0.17330253,0.07244643,0.5779086,-0.97324955,-1.2969949,-0.44182014,-1.3260851,0.31358218,1.1657593,2.5371044
-0.009186588,0.042683423,0.22694518,0.21134168,-0.9637879,-0.3150749,0.921448,-0.7428415,-1.0244561,-0.65943384,0.60156775,3.2277734,-2.5195136
-0.100400016,0.18219662,0.1454484,2.1050282,0.4651228,-2.6561694,2.639315,-0.083444715,-2.1017265,-0.5668535,1.7817032,0.3448917,1.5747039
0.18648161,0.08586048,0.3664872,-1.3984991,-0.0067612887,1.0707685,-2.6131785,-0.013045549,0.59522367,-0.8465264,0.015894651,1.8948421,-1.43839
0.57449776,0.06215345,0.5052938,-2.1066809,0.3473246,0.4571932,-1.1079845,-0.40662813,1.2142766,-2.2318497,0.047635317,3.3551602,0.48328233
0.31687847,0.32209313,0.59829587,0.66522807,-0.028546382,-2.0104592,-0.28479934,-0.013956666,2.1371334,-2.1643517,1.3292334,1.346697,-0.2958784
-0.049681988,0.03334813,0.2919465,2.8527238,0.42762545,-2.4660325,0.14885902,0.3422525,-0.8494313,-0.24225569,-0.93518984,2.2002642,-0.71560216
-0.051938303,-0.11301993,0.0578722,0.13046655,-0.72047347,1.893341,-1.9860423,0.52398276,-2.031909,-0.82709765,1.0366907,0.18264535,0.17443466
0.24043624,0.45636714,0.46875536,2.51947,-0.32889912,0.70617616,1.0444205,-0.8546489,2.747527,-2.3058002,-1.5682459,2.1549292,1.4697711
0.035342053,-0.06620127,0.45178092,1.0318336,-1.3470913,0.82853556,0.7374821,0.81770134,0.46324086,-0.43802047,0.7863364,2.0785832,2.0368311
-0.3790558,-0.085566126,0.23776619,-1.7567766,-0.13765867,-3.1309042,-2.7396762,-0.5118135,-2.7418735,-1.2021248,-1.2437118,1.855577,-2.441003
-0.42368245,0.030832693,0.57913125,-0.7662101,-0.1061861,-1.3425547,1.9009497,-1.0940809,0.31503606,-2.127325,-1.6856816,3.3254914,0.85608673
-0.14451599,-0.15568243,0.2696326,-0.08995475,-0.3265608,-2.8562193,-1.5374063,0.97897005,1.2062519,-0.09060907,1.3656919,0.8618747,-2.8921442
0.2832241,-0.048729092,0.224427,2.7738512,0.55455846,0.43521228,-2.1339865,-0.5658183,-0.77877474,-1.1990695,-2.355707,2.5040596,-1.2564249
0.019208886,0.47961566,0.116347745,-2.143966,0.086038396,1.5035299,1.8665559,-1.2755685,-2.7275648,-2.0843465,2.684272,1.8962262,-1.415441
-0.26171583,-0.655974,0.21470985,0.137844,-0.82222956,2.3599286,2.7242987,-0.23025846,-0.37448406,-2.716679,-1.7879621,0.6194775,-0.29069352
0.026465118,-0.16652863,0.17042172,0.061754625,0.1128298,-1.548114,1.5296466,-1.0565829,-1.366179,-0.58400416,-1.2529836,1.2504085,2.6414201
0.09829013,0.26517653,0.5652808,-0.10074996,0.56550723,-0.56037223,-0.5509572,1.5641901,2.3478205,-1.3288108,1.723377,1.197381,-1.4290241
-0.25336662,-0.344731,0.4973371,2.3425589,0.24531826,-2.6023996,2.2628448,0.92854786,2.318516,-1.8579112,-0.07270074,2.7035527,1.8176882
-0.02271273,-0.071343735,0.21267733,-0.27938473,-1.1074914,-1.2013292,-1.3021548,-1.536044,-1.8219949,-0.76670504,0.40226078,1.8371674,-0.13452291
-0.32829526,-0.17364638,0.09232864,-1.6438577,-1.0160896,-2.786302,1.5272529,0.08174932,-1.4315916,-1.7145824,-1.3185326,2.9061444,-0.349962
-0.15692711,0.17978208,0.4276438,-0.2660563,-0.6087326,0.035769947,0.7230499,-1.0759449,0.19975877,-1.020184,-2.777284,1.7858797,-0.7167609
-0.14587939,0.22542705,0.5271282,0.3392624,0.62448543,2.0791507,-2.0100446,0.6984515,0.6428468,-0.7521901,0.6396351,1.0289836,2.8167365
0.29381925,0.0035455748,0.5848679,-2.3044968,0.7702615,-1.9947361,0.4562075,-0.69959974,2.528465,-1.136706,-2.6491382,0.44832528,0.3117478
-0.028921366,0.0064364076,0.3828206,-2.245631,-0.1146484,-1.7791028,-1.602206,-0.5510751,-2.2642932,-0.38154268,1.1300013,2.5667226,-1.846407
0.17961785,-0.10527229,0.8026012,1.8148422,0.7088859,-0.36523923,1.8767083,1.3624179,1.2936575,-1.6051219,-2.6886535,-0.008734769,1.766846
0.11584035,-0.5230755,0.19238234,-0.9637792,1.2936825,1.0359381,-1.5096238,-1.0210577,-2.8805892,-2.3806174,0.111876726,2.752737,1.7603676
0.19984543,0.008432403,0.5592369,-1.6846646,0.22599456,-0.17108461,-1.1890087,-0.37608624,1.4724786,-0.96827054,0.12818742,2.7019744,0.3419354
0.4239223,0.30611527,0.49220407,-2.7869415,0.051204123,0.3226118,-1.8154213,0.51754975,0.79554605,-2.2330809,1.7410829,2.8261652,2.129834
-0.16300692,0.26731867,0.15550365,-1.2544152,-0.84822977,2.2534828,0.94814706,0.32131696,-2.6659803,-1.207406,0.26819634,3.04575,1.4739397
0.29324287,-0.4717249,0.4970128,0.92823696,-0.68680507,3.1095395,-0.79669714,-1.3818364,2.338477,-2.5111825,1.963073,1.4611828,-0.4338758
-0.097923286,0.097444564,-0.07224546,1.9745866,-1.1393648,-0.9864644,0.08539319,-0.022647858,-1.2223889,-1.3124291,-0.2034285,1.6187463,-2.570413
-0.08473999,-0.010413244,0.33506808,-1.0023007,-0.117130876,-3.0128884,-2.709651,-0.47234333,-2.2329087,-0.24930239,-0.5852809,2.3274186,-1.4872494
-0.06981859,0.15009958,0.08773422,0.340626,-0.40806076,1.4284196,-0.500185,-1.006079,-1.217948,-0.7235234,0.602921,0.3445807,1.0323684
-0.25104976,-0.45119166,0.10032911,-1.9873104,-0.17970225,3.0022266,2.0186937,0.5742016,-1.2329813,-2.0170727,-0.03906226,3.3341088,-0.8073418
-0.03396534,-0.11778265,0.44864303,1.6504484,-0.49298626,1.6516929,2.100887,-0.36058939,-0.26607466,-0.5612316,-1.2084556,2.9216712,0.5129347
0.28262514,-0.19637749,0.65513897,2.818992,0.19823718,2.2880595,-0.7526653,-1.038877,1.7290251,-1.953229,-0.4931562,2.3386238,1.6569898
-0.1352788,0.27927867,-0.09168568,-1.9133581,-1.5361335,-0.6826965,0.15810537,-0.19888222,-1.303327,-1.5408134,-2.5226455,0.45906526,-0.6712856
0.11666064,0.16012377,0.4540283,1.9073566,-0.17234294,3.031896,-1.4995705,1.7308571,2.6826398,-1.1106046,1.7275741,2.1544876,0.059846163
0.17784278,-0.5533375,0.5159823,1.1422386,0.18453512,2.8696322,-1.010414,-1.1876493,2.5782359,-2.3629463,1.6192605,1.5519079,-1.5183598
-0.3306201,0.20430027,0.24474843,-1.8313754,0.17507927,-0.65903527,0.9740937,0.9695349,-2.7843716,-1.7736424,1.1411192,1.8777025,-0.8875897
0.087763,-0.15165457,0.47475955,-0.4254642,-1.300865,2.1298745,0.22506809,-1.4071022,2.327563,-1.0121329,1.1326087,1.2196989,-0.35727882
0.19055264,-0.7100787,0.16764206,2.8799646,-0.3845708,-0.8233036,-1.5860205,-1.1917648,-2.323909,-2.950551,2.3951852,0.51778984,-0.57596564
0.46639466,-0.0708431,0.13982004,0.17178509,1.0444396,-1.5001435,-0.78765297,0.3459978,-2.745074,-1.5212765,2.1802828,0.8830953,-2.3521826
-0.047173284,0.03600791,0.61026865,0.4877265,1.3795054,-2.6874716,0.70689845,-1.2228428,1.2268293,-1.0584147,0.086316586,2.1324558,2.746755
0.07163724,-0.5353999,-0.043227434,1.9319044,-0.51493055,-2.4020178,2.154343,1.4797056,-2.0434563,-2.3699188,1.4098899,0.95784944,-1.3507558
0.31592605,-0.07590705,0.5954102,0.02682963,-0.78092784,-0.41765413,-2.8649602,-0.4962027,0.6834216,-0.92772317,0.3020103,0.6816276,2.871575
0.12467283,0.012936413,0.57503533,-0.6167932,-1.101576,1.056092,-1.5021135,-0.54964375,1.640506,-1.1749719,0.41726208,2.3525558,-1.4302274
0.19022457,-0.4851549,0.2331585,2.6993692,-0.65343654,2.1562467,-2.6323876,-0.5454155,-0.31309938,-2.3343527,2.0029995,3.1426811,2.5265224
-0.00081324205,0.013491362,0.38125947,1.5968612,0.45464036,-1.9374177,-1.3127578,-0.56861293,2.255459,-0.6791959,1.9384563,3.4551685,-2.11509
0.48249865,0.26850653,0.25060648,1.4055505,0.30497408,2.7513754,-1.3933471,-0.03840518,-0.44365668,-2.6825404,-1.2013763,1.8441117,0.28390932
0.45023692,-0.39385325,0.21206994,2.850344,1.2659918,-3.0284588,-1.8051121,-0.84488976,-0.15177178,-2.629186,-0.121098995,2.0809777,-1.4653234
-0.4720224,0.38601068,0.090031594,-3.016093,0.43657583,1.4914898,1.179302,-0.0013911724,-2.390194,-2.4794097,2.2846177,0.8447372,-0.30332685
-0.503824,-0.043718502,0.72525275,-1.2633262,0.42524543,-2.9602933,2.2443616,-1.2784824,0.9070842,-1.699913,0.7232666,0.64599776,2.532584
0.056275256,0.06518599,0.5943972,2.6080475,0.10644228,-2.8661137,-2.6184206,1.4384563,1.6023095,-1.2873462,-2.128497,2.247235,1.5639503
0.22596975,0.31695694,0.4727965,-0.02073998,0.5833642,-1.9978001,2.1022098,-1.6564792,2.8244889,-1.6413676,0.70684624,1.2944103,-0.84884167
0.03538455,0.15768994,0.3734262,-2.8259878,-0.076469,-1.4616783,2.0193808,1.0793653,-1.4672351,-0.16927099,1.78388,1.5726206,-2.66493
0.02312214,-0.060106035,0.19434163,0.014448091,0.08636675,-1.7136136,-1.5777041,0.32457495,-0.5442989,-0.46087933,1.256068,3.4666686,-1.3909668
0.5015433,0.36670655,0.1596378,1.6701087,1.1561025,-1.8255621,-1.6724801,-0.09355903,-0.16944337,-1.8059695,0.076201916,0.027085105,-1.5711395
-0.67518616,-0.38405624,0.2994042,0.44642842,0.72078973,2.9092226,-2.4388468,-1.3153914,-2.827727,-2.605373,2.6286786,0.92876804,2.3707292
0.1673452,0.5518411,0.35429505,-1.4861298,-0.7756501,0.9951093,0.20372415,-0.06067121,2.5114567,-2.203743,-0.47010183,3.3277094,0.697495
-0.1527739,-0.036949694,0.4177279,0.011988913,0.3130048,-2.1647491,2.706648,-0.07777703,2.5645683,-0.6672509,-0.4188342,2.296253,-0.39794874
0.2199579,0.036724743,0.55470335,-1.2491548,-0.15049939,-0.49256435,0.5853555,-0.8380058,1.6022432,-0.9890368,-1.7304903,3.5495133,-0.610538
-0.050045133,-0.06919051,0.34486914,-0.75068426,-0.8393019,-2.407083,-2.4622006,0.07167709,-1.607732,-0.23229742,0.20625901,2.269601,-1.1801507
0.1585201,0.21518183,0.43158233,0.77063704,-0.5158689,-2.3399968,-2.7598429,1.15502,0.60323834,-1.5126386,2.7918499,2.4396303,0.20388293
-0.13673729,0.68254346,0.00043916889,3.037086,-0.08751022,-3.088504,-1.1801566,1.2548206,-1.6110121,-2.6342185,-2.8299515,0.4102213,-1.7219371
-0.07969344,-0.47095788,0.7287999,2.930606,0.14385392,-0.52884054,2.0631454,0.5322826,1.22668,-2.2083204,-1.6369047,0.8092721,0.99875
0.091840625,0.44287133,0.5880138,-1.0034783,-1.3219628,1.2172353,-1.6280555,1.4655194,1.77653,-2.2729247,2.5817158,3.0883253,2.6649506
0.5138069,0.45101333,0.104885414,0.5429874,0.67097384,-1.7627096,-1.2603621,0.5793786,-1.9798275,-2.8268719,-0.37280726,0.62536496,0.045093298
-0.48494363,-0.33299023,0.3860089,-0.32635188,-0.21217632,-1.0136764,2.6876361,-0.59997904,2.8537142,-3.0710042,0.15036917,2.997261,-0.5254617
-0.37067813,0.101159945,0.054515995,2.359489,-0.28015286,1.5332723,2.025863,-1.5712576,-0.9431616,-1.7314831,2.1652567,1.1904583,-1.0037123
0.17387989,-0.05431119,0.06670477,1.557311,-0.24904272,-1.7858478,1.9202592,0.30637717,-0.67099786,-0.7147851,2.0413392,0.36060998,2.2153013
0.0012712814,0.060109496,0.18704762,-1.0161154,-0.32364184,-2.2826922,-0.3521347,-0.8868726,-1.2431859,-1.170983,-2.7248871,2.8233352,0.5519519
-0.1108915,0.056625754,0.24246198,1.3809513,1.0422939,-0.03393945,-1.4106092,1.6670966,-0.49413633,-0.78005576,1.3000128,2.1133404,-0.029261827
-0.14678359,0.30843383,0.033841558,0.7983721,-0.2450845,-1.4433483,-1.1610237,1.0223215,-0.88295007,-1.9452844,-2.1053803,2.400637,1.737952
0.04836478,-0.16744977,-0.14241625,1.0245916,0.6188975,-2.3063455,2.300793,1.5179427,-1.5337121,-1.3833135,2.414601,0.74937093,2.1124551
-0.019088915,0.45813665,-0.07814281,-2.7689552,-1.2885718,-0.12887198,-0.05463481,-0.27579975,-1.0566481,-2.008655,-0.54122734,1.6852316,-2.5760548
-0.04654073,-0.12065506,-0.111078694,-1.1188452,-0.28735015,0.6852847,2.894892,-0.98641825,-1.2763563,-1.3845309,-2.3944101,1.0139042,2.2706344
0.002210699,-0.42582232,0.00934165,1.316,0.7975369,-0.6864431,2.7659838,0.4385383,-1.7033916,-2.3548827,1.7238,2.731986,-2.2010915
0.5829513,-0.15724176,0.5177782,-2.8599913,0.52942157,0.4716132,-0.39057016,-1.7386917,0.59744024,-2.0305,-0.20538974,3.6985168,0.12264943
-0.6362363,0.3842004,0.4830539,2.2407231,0.05372622,1.537329,1.7227495,-0.9011575,0.5545225,-2.9923458,-0.65615106,0.6896045,1.0340405
-0.18183243,-0.10791346,0.35249737,-2.4564123,0.003120166,2.15157,-1.9131255,0.9689057,1.0555489,-0.34646702,-2.3263357,0.87161493,2.4387538
-0.024158798,0.12361799,0.21114749,-2.2489243,-0.56854206,1.5836842,2.187534,-0.9693763,-2.4920468,-0.7666671,0.9757457,2.9809682,2.7036412
-0.07012022,-0.18495268,0.37071344,-1.9650544,-0.5592395,-0.8130049,1.3826721,-0.19947982,0.037055016,-0.9866123,-0.879349,1.5645576,1.0778818
0.050059494,0.023274168,0.49331307,0.39972618,-0.48751566,0.03953977,-1.2611759,1.0758505,2.371956,-0.21265459,0.93911576,3.6742792,1.2038805
0.08329067,-0.032467052,0.15190622,1.0360295,-1.1270764,-0.834899,-2.3127992,0.8702872,-1.3391306,-0.74287534,-0.106069565,2.6013417,-1.4664676
0.56153435,-0.03649777,0.503777,-1.5511951,0.28456676,0.43580496,-1.1407202,-0.2411238,1.8743308,-2.1264374,-0.38623357,3.3281617,0.16154504
0.09923141,-0.02783659,0.5055211,-1.1256466,0.00402631,-0.5877002,-0.73757315,1.5423417,1.5743392,-0.63124967,0.7469733,1.8958489,2.87756
0.08207739,-0.59345853,0.4405666,2.2948601,0.66781855,3.0148833,1.6694567,1.6901696,1.5315912,-2.53311,0.20632672,3.4578762,1.2453878
-0.16373217,0.237427,0.03810827,-1.1478722,-1.1246743,2.5575237,2.4671142,-1.326482,-2.551785,-1.6887777,-1.9585257,3.136268,-0.5249922
-0.13821408,0.48445782,-0.0453424,-2.8311958,0.73164093,-2.5794735,-0.27541256,0.4942553,-1.5692903,-2.0744147,-2.5552425,1.8103412,-2.399278
-0.32157975,0.33539718,0.10073303,-0.46701634,0.19438477,-1.3504746,-1.1731437,1.6591766,-1.1283329,-2.4385936,-1.4454831,1.9386348,0.4277954
0.30776948,-0.22924042,-0.041730613,2.4363446,-0.62553155,-3.05861,-1.3655169,-0.89048004,-1.5166411,-2.1353197,0.66290045,1.1751486,-0.4732082
-0.11371537,0.00018514693,0.67342544,-2.892312,-0.52021635,1.3999081,1.2267978,-1.5316466,1.1261013,-1.1147244,-1.2355698,0.5243317,1.4644482
0.014733791,-0.5312775,0.57549626,1.5474192,0.009094161,-1.1232609,2.4495046,0.9249027,2.0610497,-2.270938,-1.7393997,1.473731,-0.8141682
0.3288582,-0.34671214,0.5342351,2.4836197,-0.48835036,1.7008181,-2.2858171,-0.7230667,0.08906913,-2.0014699,-1.9047809,3.5328832,-1.1274
0.73232543,0.12772165,0.5798096,-2.7106614,-0.2322674,-1.7898976,-1.0514692,-0.6528919,0.7865181,-2.7926867,-1.852831,0.39996648,1.5829737
0.24281305,-0.05852659,0.5014024,-1.8583547,0.9354825,-1.2537831,1.3136909,-1.0288541,2.882819,-0.5361855,0.576447,0.29541183,-2.5457437
0.17183314,-0.19402763,0.5385423,-0.8620299,1.2260613,-0.6775162,2.7257636,0.3775382,0.948689,-1.1345334,-1.1344944,2.188842,-1.264629
-0.49533075,-0.0046385564,0.60265124,-1.2100837,0.28204125,-1.5796375,0.38513017,1.5120978,2.2657702,-2.28795,-0.8257704,2.6130772,-2.7308843
-0.10251701,0.17268679,0.2659142,-0.3398103,0.16666907,2.4501233,1.1700952,0.25065756,-2.550343,-0.60267043,0.32946992,2.7034771,0.08137536
-0.56239,0.15975882,0.02833867,-2.8552775,0.6975277,0.9012764,0.67546034,0.31650996,-1.155318,-2.4716563,0.6177125,0.72036046,0.06742835
0.34804893,0.48713356,0.19078106,0.5130984,0.14798167,1.5118868,-1.0504963,0.69182205,-2.302083,-2.485708,2.1215026,2.3966153,2.1012743
0.095355675,-0.12173463,0.2890673,-1.0481752,-0.21938181,-2.7644207,1.5256641,1.0681007,-0.42748833,-0.75726175,1.7588613,1.6000725,0.088089466
-0.26665503,0.5314021,0.4145336,2.5971947,-1.1608305,0.9127557,1.7766521,-1.6960831,0.27710557,-2.7133052,0.9597075,1.4441642,-0.21645737
-0.0043753088,0.052932575,0.3273864,0.30826488,-0.16303371,1.7845535,2.1738594,0.12472165,1.9067066,-0.16049361,1.7482727,2.5263643,2.8235834
-0.34578276,0.07425753,0.20213005,-0.2305915,-0.5321003,-0.6026456,-0.49648738,1.0946031,-0.5788171,-1.8537321,-2.575272,2.2678733,0.088297844
-0.057896093,0.40698034,0.6055124,-1.786184,-0.58370066,2.5518966,0.5313015,0.15702653,2.366205,-1.8407139,-1.691151,1.2179627,-0.2195344
-0.12513225,0.371077,0.19625555,-0.1538505,-0.7206075,-1.7528665,-1.0057718,0.61229444,-0.45027065,-2.059184,2.7033622,2.3825614,-0.24278712
-0.24565814,0.5089975,0.6608023,-0.111398496,1.3407844,2.4944763,-1.3694856,1.2360182,0.7164891,-2.0769305,0.50251126,1.5172279,2.6973865
-0.16685244,-0.23809078,0.6220014,1.7790151,-0.33166277,3.101018,2.7408173,-0.00873971,1.5751173,-1.5529498,0.55735064,2.8995523,2.045543
-0.21210784,-0.21205327,0.66944563,-2.3738208,1.2674277,-1.2082397,2.6870182,-1.6490809,0.6426718,-1.0886999,-0.1827817,0.27813748,1.9745686
0.10085179,-0.46465373,0.5301336,2.2254822,0.004057672,2.7940247,2.4490087,0.64608526,1.0257008,-2.1901417,1.1932523,3.2207367,2.4036276
-0.11745867,0.3949781,0.2164435,1.2201428,-1.3901545,-2.0927334,-1.9773073,1.3557749,-0.10178542,-1.5951575,-0.34407568,2.3296762,-1.9498134
0.60393363,-0.21087444,0.16252416,0.8258944,-0.53406554,-0.06127024,2.513007,1.4849441,-0.795182,-2.4109159,1.4245985,1.9846417,2.3753693
0.035602495,0.4130659,0.5454838,-2.1191287,-0.40582067,-1.9873194,1.5854719,-0.31219923,2.8522975,-1.0370381,0.33545804,0.18718886,-2.596702
-0.3127263,-0.5170563,0.39416587,1.4281657,0.57515764,-2.1964612,-2.6509087,-1.4243984,0.49329925,-2.4451065,-1.0789652,2.3567846,-2.009042
-0.16806677,0.13646218,0.23426227,-3.086764,0.40825635,2.993981,-1.9007654,-0.91281855,-1.6045272,-0.2227304,0.71811724,0.2952334,-2.712335
-0.017576646,-0.50835925,0.15671724,0.37973616,0.89181376,0.104238495,-2.2370846,-0.69044375,-2.7082045,-2.5180516,-0.90668476,2.681133,0.46920776
-0.2833212,-0.43761575,0.16681528,-0.4879598,-0.79263896,-1.1735262,-2.4419456,-1.2477957,-1.7924764,-2.3321264,0.33758593,2.7675068,0.7593081
-0.05730119,-0.30735254,0.18171494,-1.4522486,-1.4205106,-0.38565177,2.2727687,1.7114944,-2.6749387,-1.5100749,1.2931488,1.5126213,-0.5601945
-0.007472217,0.058641672,0.13291371,-3.0360546,0.2251339,-2.0153174,0.23079419,0.6508627,-1.4796587,-0.7518151,-1.0167611,1.4847296,-0.8130338
0.20869914,-0.69638985,0.43956414,2.6374092,0.18593717,1.6528482,-1.9091406,-0.7256073,2.5243042,-3.0356574,0.80860853,1.9774414,-2.6229756
-0.21240987,0.22167435,0.15715134,1.877395,0.18576653,-1.1986932,-0.4081254,0.43818212,-0.36386466,-1.2548577,0.1607852,2.8488827,-1.0769999
-0.20012154,-0.2175644,0.8008492,0.888428,-0.009285931,1.1611996,-1.9237471,-1.2470083,2.0948107,-1.6547968,1.1489923,0.79044396,-2.129732
0.22916308,-0.3713528,0.3019862,3.1349201,-0.46253484,1.1517271,-2.8277104,-0.71820784,-0.042855978,-1.442044,2.5785086,2.3372114,2.570585
0.0889923,0.05445031,0.43798083,-1.6800737,0.39147794,-1.4236178,2.0630567,0.5554321,-2.2841375,-0.14155197,0.95398927,1.534048,-1.5686752
0.22022292,0.27037495,0.3718293,-2.6744618,0.032191344,-1.0786937,-0.21164942,-1.5595851,0.18169379,-0.75318336,0.30283952,3.6267653,0.5234034
-0.037251294,-0.16550288,0.2927015,-0.16244131,-0.35176572,-1.7557226,-1.108931,-1.0235074,-2.0407553,-0.6601968,2.1896842,2.9216003,1.1267245
-0.19283643,0.12067826,0.15818712,-0.79658425,0.8337447,2.7748432,1.0709496,0.9393549,-1.8255454,-1.2107152,2.2221353,3.026778,0.89209414
0.04514239,-0.54699105,0.49494988,-2.2284412,0.6436671,1.823603,-2.1743548,-1.0633674,1.1628773,-2.437965,1.5915229,2.367014,1.3173282
-0.36945188,-0.48628405,0.7415031,-0.19366461,1.0746987,2.490668,1.395078,1.4802046,1.8527343,-2.3937736,-1.5715536,0.09235853,1.9594972
0.45247585,0.3250203,0.1725841,0.43282735,0.090133265,1.7246987,-0.03943944,-0.82276285,-2.0164058,-2.514772,0.9572196,2.5588572,1.4864604
-0.3892337,-0.2536647,0.08473906,-2.9510267,-0.07074678,-1.4950547,1.5982125,0.4614842,-1.1846794,-2.4329448,0.5353687,2.056606,-0.6307137
0.3975845,0.102773696,0.12252906,1.5494299,0.097692534,0.9763983,0.36538863,-1.4028196,-1.8646872,-1.8814212,0.34053135,2.5658689,-0.18782973
-0.11527343,-0.034540802,0.18012045,-0.3626336,0.41624773,2.2441218,1.506953,-0.34364986,-0.9656571,-0.7906022,1.9200327,1.9210749,0.5796039
-0.18875036,-0.6779195,-0.0032959431,-2.418869,0.49064246,0.50216013,2.0697134,0.70333076,-1.7023792,-2.4538088,-0.5177045,0.23037499,2.398801
0.043486588,0.06968597,-0.013724187,2.9168277,-0.33741018,-0.1924674,-1.3480006,1.1045506,-1.382467,-1.1250478,-0.3884139,1.3906235,-1.5986158
-0.07448207,0.26024866,0.028075784,-1.9876177,-1.2048743,2.2539163,-1.0104566,0.63761353,-0.96566606,-1.7447953,1.0203724,2.3837106,-1.825458
0.3197654,-0.46542126,0.42285615,-0.38568836,0.074606754,0.99269575,-1.9455061,-0.7882511,1.4514802,-3.0114477,1.7646301,2.5649414,0.3554492
0.06362723,-0.014666118,0.29682237,2.074278,0.34153652,-1.7766739,-2.0455127,1.0952439,1.4321997,-0.19190264,-1.0136292,3.4006314,2.7620971
-0.5141884,0.3956178,0.556247,-0.6101941,1.287406,-2.869073,-0.2902491,1.0347033,0.9240372,-2.848589,-0.30873275,2.128851,2.357612
-0.55211574,-0.1501096,0.11699297,-1.1650705,-0.7159078,0.57310027,-2.5072553,-1.250565,-2.647663,-2.2050865,1.2078049,0.7597383,-0.69266605
-0.48928136,0.5199621,0.13803373,-0.35809997,-1.0336076,2.183936,1.8816302,-1.262572,-0.931983,-2.9564617,0.38750482,1.808025,-2.4389393
-0.30959028,0.6397065,0.03774509,2.021843,0.36236417,-2.4230754,1.5055311,-0.8953433,-2.162394,-2.6621284,-0.4229722,1.0379933,2.2214677
-0.5891187,0.082415126,0.0019038618,1.2528421,0.24103433,3.080656,2.4150198,-0.4870609,-2.250687,-2.025278,1.459027,0.96083575,2.1084063
-0.22586903,0.56508076,-0.053649157,2.678321,-0.14138108,-2.9478624,1.5473368,-0.84564626,-2.2495074,-2.1416082,-1.6454467,0.26145834,-1.9620643
-0.079662666,-0.5094005,0.4580789,-2.646763,-0.16234377,2.919402,2.1449,0.32474327,-0.032158136,-2.1161695,-1.7370632,3.6406324,-1.7423569
0.06977173,-0.16536562,0.20285657,1.3398045,0.48532867,-2.105462,-0.82995296,-0.07411134,-2.8472896,-0.7101867,2.601546,1.8876113,-2.3294148
0.32199147,0.059130732,0.5114068,2.1257563,0.5862326,2.6877232,-1.110043,0.4691918,2.2242687,-1.694637,-0.9994427,3.3605382,2.3929846
-0.4675824,0.13719794,0.6353473,1.8659809,-0.9772314,3.0206115,0.16336131,1.5852742,1.6548588,-1.893528,-1.0315119,3.7161124,0.19397879
0.06973998,-0.08569744,0.46433836,-0.97639954,-0.14959393,-1.3523588,0.5718949,-1.7568341,0.55171347,-0.16837716,-1.3471088,3.1307724,0.26808238
0.08055496,-0.009699263,0.405285,-0.3345924,1.4955881,2.835486,0.3464222,1.3040173,-0.24101663,-0.3340943,2.2529242,1.4447958,-1.2884156
-0.16591737,0.06555268,0.25973493,1.8531028,-0.7399148,2.0062022,-0.36966777,-1.573274,-1.1953529,-0.45782948,1.3811533,0.30835143,-1.0952874
0.3389308,-0.48938936,0.287094,1.0799218,-1.005524,0.73465765,-1.215663,-1.2235644,-2.1979563,-2.6201808,-0.19578028,3.114496,-0.605489
-0.04073316,-0.5798743,0.58882546,-0.5685089,-0.86272377,-2.9662945,1.9354508,0.35097122,0.70800424,-1.8915586,2.5722315,0.12439079,0.98275447
-0.15170287,0.07676703,0.42481226,2.5485802,-0.28367186,-2.9806235,-0.021095037,-0.28525078,1.6323736,-0.6205585,1.8463004,3.2000027,0.33192587
-0.4795559,-0.010528147,0.124007605,1.7065866,0.2591509,-0.6470188,0.30792856,1.3252215,-1.5607982,-2.4472814,0.0021307468,3.3939922,-2.8958654
-0.014810469,-0.07996264,0.23824982,0.8659515,-1.2831099,-1.3671281,2.3051684,0.6938081,-1.9716942,-0.35706115,0.05346918,2.4965553,0.45092916
-0.091850325,-0.6218891,0.643034,1.3471049,-0.29242927,0.28446063,-2.3859591,-1.1291289,1.3177936,-2.6330614,0.6335907,1.3309169,-1.723053
0.30618942,0.5295689,0.4083861,1.129227,0.7800957,1.6039201,-2.4471796,1.455688,-0.40386963,-2.774602,-2.0960588,3.3605144,-0.620734
-0.7435202,-0.2236394,0.54618776,0.13091862,0.5576947,2.0848558,1.4326379,0.390388,0.9297488,-2.7347698,-0.29057717,0.14863232,2.175154
-0.13627613,-0.098585606,0.4884846,1.9319235,-0.3846268,2.3537889,-0.3013909,1.6681802,1.1798956,-0.7106769,1.4515717,3.028329,1.615833
-0.39036608,0.09230336,0.5515624,1.1757567,-0.04325092,-2.4946094,0.48534656,0.13003635,1.0617819,-2.021739,2.7407768,3.378342,1.494807
0.1921973,-0.061872937,0.44636846,-1.9516927,0.72536665,-0.7537483,2.0208719,0.4072063,0.4269011,-0.5348923,-2.1863856,1.449902,-2.223816
0.5422733,-0.060200196,0.16841853,-0.62165844,-0.124486476,2.0795612,-0.1579752,-1.4617586,-2.312024,-2.890283,-0.9005221,2.447072,0.6579187
-0.004231058,0.11018705,0.31237453,-0.25670424,-0.12455472,1.3928955,-0.37188888,1.3350697,2.720762,-0.15608597,-0.09676361,2.8060203,0.5164213
0.45396978,0.13433717,-0.011568744,-0.27432293,-0.1822788,-1.7231063,0.01952219,-0.84209466,-1.9462464,-2.1571264,-2.152138,1.1419815,1.0847924
0.36739522,-0.6275392,0.45484835,-1.8649148,-0.91832685,2.2764297,1.9872668,1.6909146,1.1436436,-2.9164138,1.1014159,1.365668,1.7964747
0.25813952,0.19230711,0.28931606,2.7108884,0.9021111,-0.004729655,-2.4631598,0.5130491,-0.5488455,-1.3887919,-2.6862495,2.9587185,-1.5954666
-0.3942418,0.3915696,0.28925774,-0.14335032,-0.94220865,-2.1236572,1.1871121,-0.890545,-0.06634903,-2.6768157,1.7276895,2.3082526,-0.947054
-0.0038376972,0.31180158,0.06799488,1.0994155,0.24833477,0.118566744,0.09093094,0.7110212,-1.7160418,-1.4203353,0.9637692,3.5862849,-1.0756195
-0.42439702,-0.056051817,0.5811367,1.1494107,0.82440454,0.9790417,-2.189909,-1.1762209,2.6852496,-1.5553218,-2.341218,0.7154422,1.6977718
-0.52152175,-0.32679734,0.5372732,0.11938465,0.36941624,-2.0469804,1.6022637,0.53456926,2.309635,-2.439252,0.8236468,3.6194458,0.28656554
0.107007,-0.13859478,0.31873667,-1.2234892,-1.1630622,-1.4241307,-2.222299,0.9120915,-2.3301797,-0.8974285,1.7260706,2.6780176,-0.21534395
0.15547249,0.5229504,0.21568212,-0.21366857,-0.68383235,2.4263632,0.87364054,-0.7531787,-2.815681,-2.2498646,0.9882028,2.6072557,1.8718555
-0.28793412,-0.7344253,0.3971425,3.0028133,-0.35697955,0.45177743,0.7643719,1.5849771,0.6216502,-2.7133193,1.0663142,0.03496638,-1.9087112
-0.090999484,0.038215622,0.4112651,-0.48942754,0.00972054,2.7536933,-2.0436528,-1.1759694,1.6476676,-0.5027213,2.809952,2.1128163,-1.789212
0.23631144,-0.27603197,0.053001903,1.7785379,-0.7640078,0.21278246,-2.5612972,0.4385357,-1.5566121,-1.6697333,1.5793164,3.2577426,1.3462698
-0.7297927,0.29731148,0.16956413,0.05857757,0.26465133,1.3828726,-0.2307806,1.3747177,-0.7902987,-2.9345026,2.1142204,0.42925778,1.8042333
-0.030055404,-0.064852215,0.34361538,1.0091991,-0.45002675,-3.041012,2.0076702,-1.5188892,1.63816,-0.3391149,-0.13499093,1.3325199,-0.6453595
-0.7146162,-0.22014846,0.19632941,1.2531084,0.085826814,1.5073392,2.2846172,-0.42052162,-1.5516843,-2.9175687,-2.501044,0.38948604,-0.32601666
0.20530823,-0.13370691,0.7142715,-2.6290452,-0.80222064,-1.673244,-2.6974287,0.39227843,1.622369,-1.7524698,-1.976021,2.1693728,2.0805347
-0.36981958,-0.38573095,0.38929015,1.4834304,-0.2450137,-2.443862,1.5171983,1.4872034,2.4921873,-1.8689475,-0.46098113,3.6216078,1.153755
0.03811629,-0.07598292,0.30527455,-0.31285655,1.0016465,-0.54879475,-1.5474541,0.1872487,2.11891,-0.31659412,-0.21811628,2.3108158,1.160805
0.27190465,-0.42721933,0.07321826,-0.087093905,0.5400372,-1.4295875,2.320295,0.33946824,-0.60207033,-1.3494287,-0.098367214,0.2790628,2.8969414
0.42439032,-0.08341684,0.12538892,2.7385085,-0.88410044,1.4888045,-1.8382301,0.6098051,-1.921549,-2.0172734,0.94802046,2.9616568,-0.85911393
0.37002605,0.07962258,0.22725645,2.7331643,-0.020990718,-0.08046341,-0.8451085,-1.348249,-0.48967266,-1.0449221,-0.17226315,3.2599795,0.084968805
0.013974816,-0.06442541,0.2954905,-2.7340026,-0.7482611,1.4527864,-0.12208104,1.642837,-0.57178354,-0.22190642,1.8351362,2.3223732,2.0618088
0.033812262,0.27318713,0.64243066,0.07167402,-0.3971082,0.2624505,0.39848208,-1.4994279,0.8704915,-1.1653259,-2.098859,1.0863893,-1.3473324
-0.27651823,-0.3545574,0.07366557,-0.017450906,-1.1115291,-1.3119204,1.06972,1.1015003,-1.1972201,-2.0813603,1.4116185,2.7989535,2.631533
-0.05490125,0.054036006,0.35448226,-1.3666672,0.023191521,1.6483604,2.776138,-1.311756,2.2974222,-0.28677845,0.4337957,3.4497838,2.6295545
-0.009089664,-0.33524337,0.1125624,1.9828824,0.16864233,-0.1651994,-2.4599917,-0.2807263,-2.0303893,-1.469594,0.89986086,3.679623,2.3930032
0.10818125,-0.475631,0.47810942,2.5325036,1.115679,-2.9786556,-2.1443315,-0.32972383,2.0417478,-2.2465823,-1.3075927,2.7812815,-0.074038506
0.0217711,-0.05839861,0.4730221,-1.1228291,-0.8765357,0.59172195,1.3182065,0.5334711,1.3453238,-1.099481,2.238887,3.3176742,-1.5089765
-0.28021473,-0.21566683,0.4842322,1.3159056,-0.17493187,0.9452009,-2.4931524,-0.17348516,2.8692553,-1.1145092,-0.9664608,0.44675955,-0.5674424
-0.09634488,0.7049369,0.3331349,0.01277164,0.2083246,2.2960374,0.7109237,-1.0221294,-0.4333887,-3.0691793,-2.4917371,3.7381344,0.014947653
-0.3557617,-0.15260896,0.36224157,-0.586154,0.13530792,-2.0382342,-2.5982156,-0.8558784,-2.8480983,-1.478707,1.962856,2.9892292,1.3399708
-0.23633376,-0.2573797,0.70188135,0.81313044,-1.16165,-0.881903,2.0656664,0.93643475,2.1134584,-1.5136783,-1.6642787,0.8676734,-1.0399017
-0.07787101,0.049050517,0.17864245,-2.2672932,0.54401237,1.0221473,-2.1462595,0.18380952,-1.261811,-0.4564638,-1.9934578,0.5409207,-0.26281238
-0.058031272,-0.0030838102,0.267217,-0.7756894,0.20663549,0.9719762,0.59737015,-1.1324565,-0.037471056,-0.31294918,-2.8927605,1.3030288,0.6919117
-0.20541804,0.06437846,0.5455246,-0.5186261,-0.35751772,-2.2724123,0.9213481,-1.3364643,0.71415854,-1.0554671,1.3456371,1.7502817,-2.4097428
-0.11575705,0.17584117,0.41334745,2.5016491,-0.50254464,2.7369435,-1.5474721,-1.0340917,-0.41148996,-0.26976895,-1.7457036,0.30945045,2.0270717
-0.0932693,0.1600577,0.30364865,3.095651,0.82293254,-2.1414065,-2.0815277,-0.5194813,0.13296056,-0.14287663,2.608867,1.2533913,2.7909544
-0.16497262,0.36128828,-0.07234521,0.64216113,0.111045234,2.9631236,-0.3886547,0.44597197,-1.4402368,-1.9099077,0.15307355,1.2646754,1.5523655
0.56821716,-0.5092326,0.18359253,-2.457115,-0.9484226,0.72406167,-1.1303972,-1.0241151,-2.5439992,-3.0380824,-0.55253696,1.296067,2.0847461
-0.20808955,-0.1637884,0.76143575,-1.9355212,0.43760797,-1.012948,2.6647003,-0.66724384,1.463517,-1.7788291,-1.1078813,1.9526285,2.535506
-0.44568557,0.55406994,0.630435,1.260987,0.15574029,1.3576373,-0.2533784,1.2030363,2.210498,-2.6893938,-2.2069168,0.942495,2.1514752
0.098044865,0.58427656,0.5009539,-0.85185254,1.2603093,0.39697272,-0.471519,0.8035908,2.391772,-2.3290515,2.6048682,1.0793971,-0.67893815
-0.03447049,0.11380799,0.34920192,-3.0107908,0.21023859,2.8778377,2.6874006,-0.14333606,-0.83329964,-0.07348609,-0.6985235,0.91362834,-0.36138606
0.29196814,0.20837368,0.44726676,0.25524515,-0.6491436,-1.6661297,0.3955989,0.14755905,2.7525656,-1.2157687,-0.750927,0.4664888,0.77218175
0.016728327,-0.018295923,0.3872103,1.4040915,0.13362467,0.2378782,-0.20400906,-0.7786652,-1.9257567,-0.18072772,-0.11217046,1.6280727,-0.4699061
-0.06570269,0.053678334,0.2048066,-2.1210473,0.45068547,2.7996068,1.4349496,-0.1633513,-2.0051332,-0.5436094,-1.3879596,2.2581806,-0.8313341
0.3695853,0.31143516,0.80222344,-1.7424685,0.30839428,-1.9319013,1.2489593,-1.6254777,2.2219713,-1.9291022,1.1994078,0.5450036,-2.7697704
0.30177507,0.03133359,0.22533385,-3.088716,-0.57552576,1.987032,1.207577,-1.6512697,-2.4738464,-1.4909947,1.0657582,3.001363,-1.8865987
0.08549339,0.0005118549,0.5779815,0.56844515,0.7310117,3.0603929,1.7075393,-1.4804871,2.2334406,-0.91190314,0.10189295,1.490372,-1.635037
0.15366627,0.091946036,0.39724654,-0.37359068,0.855667,-1.1811174,1.6070755,-0.38515413,2.8116004,-0.72512674,1.1933734,1.1371872,-1.484035
0.46189258,-0.2959849,0.119596615,-1.403505,0.46504384,-2.486563,-2.6784291,0.64780664,-1.740326,-2.537234,-2.8958285,1.4233294,0.17201042
