x,y,z,R,P,Y,t1,t2,t3,t4,t5,t6,t7
0.023472674,-0.11614245,0.3173734,2.8644958,0.16143358,-0.54918057,-0.012600839,0.29080653,-0.10740161,-0.35879812,0.43524975,0.73454374,-0.45091796
-0.18552648,-0.0137670785,0.37941697,2.4803448,0.24666405,1.1556244,-0.54241216,-0.3402453,0.048344135,-0.41224542,0.30537796,0.20447516,0.44412166
-0.07202067,-0.1229693,0.2956146,2.7226448,0.31115398,0.3689709,-0.33610973,0.036816716,-0.47225845,-0.4088446,0.55651253,0.5520055,-0.5408575
-0.049132198,-0.17550687,0.29859382,-3.1243567,-0.09893023,0.31152335,-0.34375757,0.24891412,-0.008737445,-0.26175347,0.32472897,0.049316764,-0.4323554
0.05351565,-0.16061294,0.35595822,-2.8552568,0.3436374,-0.5007063,0.25189674,0.25316912,-0.2971978,-0.2849369,-0.33954984,0.23847839,0.46711427
-0.1299396,-0.11767495,0.3904794,3.0248044,0.1380888,0.42925256,-0.27565512,0.0063423216,0.24150902,-0.45060483,0.03697872,0.28752118,0.37695408
0.07687722,-0.12796359,0.35987824,-3.1057196,0.38576117,-0.4057498,0.13432813,-0.2591786,0.001517117,-0.08038694,0.2096498,0.5923272,0.19709826
0.09561989,-0.074812606,0.31284535,2.941706,-0.0054791924,-1.0406661,0.3000093,0.28026468,-0.097459465,-0.23232263,0.079364896,0.70859975,-0.3230945
-0.048117574,-0.16710964,0.35627234,3.0414226,0.09982184,0.40151843,-0.44479233,0.11033845,0.37119913,-0.18465257,0.2443797,0.10741683,0.25838017
-0.024592966,-0.16256128,0.3688833,3.1247084,0.4068698,0.21149099,-0.043530285,-0.26592326,-0.3377873,-0.17254144,-0.37640184,0.2776232,0.42801195
-0.08116244,-0.14569448,0.28140736,3.0573037,-0.13692434,-0.38677493,0.18312037,0.19536275,-0.16869044,-0.6114839,0.043860078,0.6209779,-0.3628634
0.025657088,-0.15449443,0.34438136,3.0208702,0.13250345,0.06439889,-0.47300053,-0.13813166,-0.059877157,-0.054448187,0.14099467,0.6109583,-0.02707988
-0.1145935,-0.13036357,0.33596796,2.9783638,-0.13914387,0.014692676,-0.30436438,0.3503992,0.120159686,-0.55697745,0.3317551,0.49992654,-0.30889
-0.11449941,-0.12666672,0.32461047,2.2488241,0.9485818,0.9257544,0.046126783,-0.34654698,-0.49191546,-0.35374647,0.57857937,0.25976378,0.14468682
-0.030250505,-0.1467428,0.3622896,2.7318847,0.69405156,0.2962299,-0.54324883,0.21644169,-0.15956178,-0.192285,0.5568672,0.37234446,0.07802528
-0.16207686,-0.061911434,0.3109158,2.6457376,0.5414036,0.8760397,-0.41313112,-0.20563719,-0.45414278,-0.45517766,0.014347315,0.34561872,0.2507419
0.026508987,-0.15153784,0.30559736,3.0738142,-0.06713668,-0.11234401,-0.39529002,0.30472434,-0.5328019,-0.19033721,-0.13082588,0.39870492,-0.4751262
-0.115229025,-0.13934645,0.32126942,3.0879822,0.5914806,0.3957744,0.05814451,-0.2716094,-0.49171197,-0.40542036,-0.3910849,0.24180928,0.46314877
0.05450031,-0.11059136,0.34450197,3.1237564,0.07865441,-0.62333846,0.10546076,0.10505414,0.21885026,-0.24513412,0.24295497,0.6503842,0.061219156
-0.029643662,-0.19212753,0.34888625,-2.9718032,0.8331536,-0.3166531,0.3531596,0.15861225,-0.08123812,-0.4345448,0.5750323,0.16678728,0.19758928
-0.009656161,-0.16998269,0.36023262,-3.1264868,0.32088533,0.13197266,0.1630249,-0.29719093,-0.27471638,-0.18586424,-0.30899113,0.18764985,0.34512675
-0.057383627,-0.1601143,0.34169936,3.0905914,0.053782653,0.52352065,-0.40348828,-0.19565271,0.32830912,-0.1352267,0.20170802,0.20602185,0.2021038
-0.025367029,-0.16339022,0.33233073,3.131501,0.11603801,0.2343009,0.05198556,-0.33497477,-0.27366015,-0.18827045,-0.12978262,0.23395137,-0.03192389
-0.1455166,-0.18392345,0.25891644,-2.943155,-0.2242698,0.25425762,0.20144427,0.089724064,-0.24528092,-0.5967462,-0.19470885,0.041024104,-0.2812853
0.09824843,-0.11156818,0.351501,-2.9293556,0.20072842,-0.8072115,0.4307484,0.15991974,-0.16173044,-0.22131008,-0.08967525,0.4153373,0.21441
-0.002756685,-0.17907423,0.3087682,-2.9389715,-0.48591548,0.34792686,-0.55278766,0.18136632,-0.07191557,-0.058788836,-0.30303052,0.12696381,-0.2934543
-0.058361113,-0.15672812,0.41507354,3.0308347,0.45971438,-0.21126515,0.08430672,0.20347172,0.3599984,-0.4773845,0.4659409,0.35233316,0.3514557
-0.14953355,-0.12986603,0.34871048,2.7901142,0.65372676,0.6349721,-0.06372696,-0.15389477,-0.22902879,-0.41735178,0.0099051,0.13704278,0.497526
-0.14895263,-0.10488899,0.26797247,-2.945684,-0.31610107,0.50345343,-0.4762743,0.17637002,-0.16603032,-0.47656953,0.020232797,0.2985982,-0.5522076
0.013316132,-0.13847256,0.39227426,-3.1214437,0.36113137,-0.44142702,-0.01888448,0.2704957,0.42625862,-0.3272512,0.43698257,0.45903328,0.3690297
-0.048423752,-0.18515912,0.4005984,3.0089936,0.0034532032,-0.31471443,0.36344123,0.19193262,0.3362946,-0.571067,0.14067692,0.3079572,0.15463686
0.023463972,-0.17881924,0.3226846,3.1028326,0.4463825,0.07900218,-0.28677577,0.34985763,-0.17119628,-0.1820755,0.49676627,0.05738432,-0.21785206
0.014990561,-0.18383303,0.3193468,-3.0893612,-0.099142775,0.23061952,-0.46483612,0.30794007,-0.34765705,-0.09118134,-0.13629219,0.013378875,-0.318839
-0.052027628,-0.16942574,0.26681915,-3.1191432,0.6723584,0.045454603,-0.082092255,0.3126763,-0.5452078,-0.47176322,0.40885168,0.23580262,-0.2541493
0.08796656,-0.15132311,0.31463307,3.019153,-0.31907713,-0.26828742,0.18996012,-0.18540175,-0.33000225,-0.045639873,-0.16038793,0.29741207,-0.5055299
0.018883914,-0.12294959,0.3121138,2.852142,-0.30830002,-0.46447116,0.09815794,-0.07084459,0.31343544,-0.27543327,0.39787573,0.6773813,-0.42331973
0.056759823,-0.1758048,0.29950616,3.0906982,-0.12675343,-0.038084447,-0.07206535,0.18616074,0.4794584,-0.098063886,0.5578428,0.010812978,-0.20844683
-0.15885097,-0.16206945,0.39449728,-3.0241382,-0.9783779,0.36292815,-0.077854574,0.2727486,0.49803227,-0.6069653,-0.12428254,0.17243634,-0.39294016
-0.15151781,-0.09074585,0.39618796,2.79211,0.11403736,0.89191574,-0.39290798,-0.30008408,0.43140024,-0.32534352,0.39795065,0.09479708,0.36930436
-0.009874634,-0.16590081,0.3637039,3.0610793,0.16891776,-0.1567272,-0.026944697,0.26137584,0.26350832,-0.34001845,0.33621556,0.24958709,0.091466606
0.07389716,-0.16346747,0.3658749,-3.0834305,0.45892897,-0.15781087,0.08224034,0.0063590407,-0.056470394,-0.06713319,0.075535774,0.1208488,0.33081162
-0.060888417,-0.12199891,0.38157493,-3.1293933,-0.26159167,0.023154736,-0.38604024,0.23716623,0.53580135,-0.4228604,0.115563214,0.53788567,0.17093277
-0.038612016,-0.17178997,0.34349653,3.0936654,0.36223218,0.28499445,-0.4747161,0.31219143,-0.34006155,-0.21585336,-0.15810505,0.10134321,0.18058419
-0.049290143,-0.11149708,0.35430738,3.1393926,0.101639695,-0.2556121,-0.18085328,0.16476858,0.105012596,-0.4321134,0.08643156,0.7001738,0.13297951
-0.15685232,-0.018361539,0.41671318,2.905225,0.13223009,0.7522741,-0.49992418,-0.24645685,0.3405078,-0.53370965,0.16093868,0.5103738,0.45819598
0.051343165,-0.11639264,0.30448,2.693337,-0.43097126,-0.96638525,0.43830353,0.10456562,0.25814664,-0.3164623,0.025307,0.6264876,-0.38299537
0.0035375096,-0.17673457,0.3333897,2.9473875,0.4878369,0.28638634,-0.2867029,0.059064835,-0.41782695,-0.14209652,0.40575367,0.1540616,-0.30045456
-0.060163736,-0.13077238,0.2997277,-2.991143,-0.09311044,0.020516552,-0.34406924,0.2196753,-0.28464222,-0.38408387,-0.38518515,0.47181338,-0.037029505
-0.053761862,-0.1583566,0.39745343,3.0266974,0.697998,-0.049691647,0.1802584,-0.049228042,0.23894256,-0.3610655,0.4778908,0.26492536,0.46911746
-0.1486099,-0.1573422,0.3209234,-3.1149106,0.2694886,0.4055727,-0.018125951,0.03807205,-0.24510473,-0.51532036,-0.33287555,0.08871757,0.34575766
0.059121586,-0.10050995,0.3878412,-2.7262921,0.5849836,-0.9580402,0.28046465,-0.022442847,0.27960122,-0.19880599,0.49195188,0.7056888,0.55170244
0.050629206,-0.118255734,0.3532589,-2.9843087,0.34483576,-0.54405,-0.23779002,0.3034494,-0.5724384,-0.20409238,-0.34451944,0.63259596,0.13468629
-0.009429805,-0.1855144,0.33189544,-3.1017785,-0.07895631,0.40795666,-0.50562423,0.07989475,-0.3510108,-0.049737036,-0.17326152,0.06687134,-0.26633748
0.14669177,-0.03698117,0.33256796,-3.0666082,-0.16504763,-1.1231029,0.52905184,0.08078927,0.15417045,-0.087023675,-0.17517304,0.6326058,0.27277762
-0.108443305,-0.18577594,0.29431617,-2.9658754,-0.89041644,0.12621772,0.0092971325,0.30671847,-0.038125873,-0.49462396,-0.57479477,0.11499166,-0.36393446
0.011863738,-0.15291002,0.36807603,-2.8170822,0.9326991,-0.6096906,0.20359713,0.14662778,-0.1502761,-0.28850695,0.5087716,0.36100718,0.32667214
-0.05395081,-0.19775516,0.38954377,2.722493,-0.9582285,-0.33235848,0.20033169,0.32893795,0.53140944,-0.5235795,-0.27642572,0.16660586,-0.23992258
-0.083175525,-0.13360545,0.35965282,2.8918774,0.2203289,0.6094651,-0.43813634,-0.29797667,0.3824712,-0.1787079,0.4372694,0.30674607,0.2842269
-0.04547187,-0.12839723,0.31509486,-3.0529506,-0.18649484,0.20817347,-0.56577075,0.08003706,-0.067753196,-0.24383423,-0.13425851,0.5249534,-0.14945644
-0.13215224,-0.07608036,0.37513906,2.6057534,0.8488952,0.271082,-0.19517049,-0.034517556,-0.091601014,-0.49612057,0.5510697,0.6434593,0.37448877
0.06980841,-0.15361102,0.3332374,3.0819035,0.044138093,-0.19084086,-0.2622203,0.246849,-0.40662283,-0.09616119,-0.0631752,0.31278926,-0.30545005
0.019888207,-0.17021078,0.30589354,-3.0686595,-0.7208476,0.018451782,0.012195826,-0.00086814165,-0.022996783,-0.1411421,-0.48498732,0.12930931,-0.2632686
-0.12189956,-0.13441388,0.3681507,-2.8859086,-0.2812378,0.9352274,-0.4990193,-0.19067378,0.38652563,-0.23870203,-0.37360686,0.03406222,0.37987155
-0.18105876,-0.08281401,0.38063487,-3.0123703,-0.41481203,0.68151814,-0.5711686,0.21863979,0.39775127,-0.5511937,0.15458477,0.24696189,-0.17444623
-0.04454495,-0.17106582,0.32718432,3.1124556,0.26291606,0.35265467,0.09112823,-0.32090023,-0.4197178,-0.20963031,-0.14313799,0.0837926,-0.017181277
-0.10790388,-0.1134159,0.32453185,2.9480271,-0.9809241,-0.46427873,0.009306371,0.13415375,0.34349883,-0.5515355,-0.21716198,0.7354089,-0.4736537
0.025412895,-0.15913454,0.3486556,3.1106837,-0.41255793,-0.21988246,0.53862804,-0.3082871,0.38689715,-0.28018963,-0.23140818,0.2822688,0.20022792
-0.13681602,-0.16247214,0.39728943,-3.0150626,-0.9193731,0.41301575,-0.029616594,0.15414423,0.5453883,-0.5389643,-0.12609577,0.1157339,-0.28073946
-0.041486345,-0.13306253,0.3427812,-3.097931,0.056284558,-0.21800126,0.12369859,-0.047916144,0.019884229,-0.4119524,-0.052470982,0.5551118,0.12868053
-0.12344689,-0.15257102,0.33773553,3.1318324,-0.2847605,0.2046217,0.2632748,-0.20534967,0.16055954,-0.5119872,0.10307157,0.25144315,-0.2216774
-0.067515284,-0.16400534,0.3910401,-2.9584854,-0.8649177,0.2980062,-0.05736059,0.1482405,0.57591313,-0.44592237,-0.5614138,0.21479574,0.22711015
0.06310336,-0.16095537,0.35273182,-2.797269,0.66696703,-0.6163404,0.37981504,0.23660511,-0.074157774,-0.2737513,0.49110168,0.15240194,0.17643487
-0.07254589,-0.15054156,0.33524907,2.9447556,0.25515786,0.42192787,-0.2957315,-0.044365704,-0.024967551,-0.2661699,0.37925977,0.21429794,-0.08450651
0.055703476,-0.17319673,0.31642532,-3.0725892,-0.018046195,0.04279286,-0.21586135,-0.05096224,0.44211966,-0.017323494,0.13414592,0.25107378,0.27961236
-0.1794839,-0.07190086,0.3435555,-2.0044794,-0.67301345,1.3259673,-0.35226083,-0.22169882,0.36729634,-0.38929182,-0.578164,0.12846684,-0.3089959
0.0923655,-0.11117722,0.3524577,-2.8326406,0.46322727,-0.90012956,0.5690716,0.0636318,-0.22717756,-0.2392919,0.25578177,0.43461022,0.07434732
-0.06973603,-0.12867346,0.34878385,2.7445407,-0.7435247,-0.49610966,-0.16551033,0.32286394,0.5169869,-0.5071791,0.21974188,0.6731944,-0.48588958
9.5397234e-05,-0.19175102,0.3234091,-3.0175166,-0.16714321,0.44039893,-0.2402989,-0.25901338,0.40212458,-0.017293692,-0.13667107,0.09430354,0.33365798
-0.055778086,-0.13569714,0.32402658,2.952726,0.5387918,-0.0331034,0.021303713,0.018144429,-0.28337324,-0.42364553,0.42011553,0.5097655,-0.12798905
0.05316713,-0.17021278,0.36471587,-3.105872,0.73769176,-0.08386853,0.0112167,0.068241775,-0.13853335,-0.083078146,0.32241708,0.072412044,0.2779793
0.021115422,-0.1456007,0.34360963,-3.093242,0.078719825,-0.23310381,0.3221432,-0.2704481,0.003613174,-0.24233523,-0.06866002,0.42409307,0.1538859
-0.04199334,-0.121312045,0.29100212,-2.5781386,-0.48845235,0.41650096,-0.5041125,-0.26306087,0.22474313,-0.15000123,-0.42048377,0.6337901,-0.0987446
0.094152234,-0.16015628,0.31438774,3.120147,-0.017162623,-0.20685427,0.39249957,-0.115407795,0.18202943,-0.08669633,0.2999075,0.015138535,-0.1394988
-0.039979383,-0.15576436,0.36988547,3.1149786,0.3111761,0.30480218,-0.4898041,0.07426059,0.00697428,-0.18967518,-0.2089093,0.32182565,0.51074046
-0.057884037,-0.16068006,0.34539014,3.041664,0.63235956,-0.08262641,0.25984997,-0.044846028,-0.096024185,-0.4324091,0.50545615,0.33945215,0.04681027
0.021263175,-0.17488979,0.34298104,-3.048517,-0.16758145,0.12715009,-0.44529343,0.2843911,-0.21565896,-0.115280926,-0.5227582,0.15484326,0.123485565
0.040169388,-0.18499373,0.3129758,-3.1170623,-0.17888004,0.17892861,-0.5089334,0.34573817,0.36076754,-0.034772992,0.12379867,0.02024741,0.05658269
-0.08824696,-0.15453522,0.30199054,-3.0401666,0.21159217,0.30589908,-0.3687425,0.23045367,-0.46525437,-0.37206924,-0.42952487,0.16879906,0.13621157
-0.028810069,-0.10620609,0.28903812,-2.945046,0.010755361,-0.29750562,-0.35612285,0.27545828,-0.5080579,-0.39841902,-0.53891385,0.7224265,-0.009982049
0.09112485,-0.13155445,0.3083548,2.9747105,-0.06226015,-0.45834902,0.3307495,-0.09851244,-0.20325428,-0.14826223,0.18941903,0.40307468,-0.50284034
-0.025184106,-0.1774194,0.3802462,3.0131752,0.13947241,0.3334534,-0.016584456,-0.1723773,0.4850816,-0.17438829,0.09499222,0.013429884,0.55835766
0.0100841895,-0.17566076,0.3142082,-3.1280937,-0.13671295,0.18244265,0.06507754,-0.28264865,-0.07661688,-0.11461568,0.056643307,0.15246198,-0.26945385
-0.055719227,-0.15075916,0.36938676,-3.0512712,0.236137,-0.5660011,0.5708458,-0.072250724,0.080046296,-0.5846892,0.08918369,0.6331229,0.25594223
-0.01647339,-0.18204543,0.34779793,2.5273428,-0.78572434,-0.7385212,0.5117282,0.098474085,0.4637038,-0.47750962,-0.05019182,0.3594897,-0.44691393
-0.18689077,-0.08319539,0.3828174,2.8258522,0.2769274,0.7830083,-0.16683063,-0.23648933,0.08448249,-0.48757577,0.058090925,0.14294437,0.4374172
-0.053113326,-0.17212072,0.32674313,2.4868312,-0.9382853,-0.9603569,0.3486539,0.2595402,0.30951768,-0.5446851,-0.38685775,0.54284704,-0.42441946
0.1068164,-0.08825338,0.3215056,3.0418406,0.30950916,-0.8225142,0.39185607,0.15005624,-0.429213,-0.22176918,0.27456236,0.60967594,-0.5046906
-0.01609353,-0.13604285,0.3394269,-2.9627662,0.11607221,-0.08177122,-0.14356539,-0.032187164,-0.21498093,-0.28001654,-0.4378004,0.5395176,0.29927963
-0.051587805,-0.10408196,0.27726817,3.1097841,-1.0154185,-0.41174737,0.06113237,-0.16506262,0.11859691,-0.3278543,-0.4185392,0.734361,-0.5475114
0.1392836,-0.111147314,0.32075772,-3.0468643,-0.021716746,-0.5705825,0.4225518,-0.097994745,0.5194302,-0.029198527,0.14704543,0.29336315,0.39462787
0.09112993,-0.16491199,0.3268007,-3.1324277,-0.061630636,-0.12766625,0.42768818,-0.26331833,-0.4032102,-0.05050993,-0.10957956,0.009960091,-0.35331097
-0.05947364,-0.14759427,0.33537564,-3.0459793,0.02105166,0.3907668,-0.15373036,-0.3291588,-0.21235451,-0.21639487,-0.3851967,0.3054848,0.13904065
0.019802503,-0.12199038,0.31846374,2.6785345,-0.38435152,-0.8128732,0.5428832,-0.16299678,0.37986976,-0.3677888,0.29704088,0.7040366,-0.45779827
-0.011180535,-0.15018274,0.27234912,-3.0223382,0.14483063,-0.3483496,0.5371538,-0.20625916,-0.5152768,-0.4395255,-0.15039861,0.4252151,-0.20255482
-0.105452806,-0.107267395,0.30958092,2.7725115,0.38933253,0.55278844,-0.57460636,0.08372006,-0.43049476,-0.38039267,0.28939056,0.42853728,-0.18105975
-0.026708528,-0.15908541,0.31732926,2.9707394,0.51535314,0.1638617,-0.43296158,0.35091406,-0.41355157,-0.28943315,0.3791694,0.28884643,-0.24613711
-0.07982643,-0.11924516,0.26530215,3.0879762,-0.6446428,-0.5281351,0.56570476,-0.3012256,-0.13882616,-0.5429137,-0.43245298,0.7177563,-0.4071958
-0.10872076,-0.12693001,0.35324743,2.7287009,-1.1297381,-0.5959444,0.43284076,-0.22959945,0.5308574,-0.56628144,-0.15107578,0.6747241,-0.51395404
-0.014597423,-0.15505998,0.35399124,-3.0616307,-0.2932571,-0.1046804,-0.008799374,0.13183281,0.2605278,-0.34618258,-0.31385437,0.36965767,0.2723294
-0.013016334,-0.16681123,0.39384308,2.8621368,1.0576842,0.26036966,-0.2480829,0.05078447,-0.39411816,-0.09277165,0.1132589,0.17845702,0.5740691
-0.16063087,-0.1443966,0.4055433,2.6531403,0.7492286,0.50053626,0.3093785,-0.26957473,0.18668598,-0.5041608,0.5103108,0.10030117,0.5248907
-0.023134269,-0.14390483,0.40070963,3.1011388,-0.25646845,-0.24521023,0.29040897,-0.05991122,0.5640877,-0.45527965,-0.033627927,0.47300515,0.3354543
0.093973234,-0.12430486,0.31422386,3.1234076,-0.32128507,-0.48399267,0.44596034,-0.32894537,0.12924194,-0.101810336,-0.19343695,0.4671618,0.00054109097
-0.0819447,-0.09761452,0.30653828,2.7592502,0.7759926,0.074906744,-0.041809678,-0.030552775,-0.53704154,-0.5055148,0.41441488,0.7356113,-0.07971299
0.08412725,-0.13337158,0.3114097,3.0082626,-0.32535082,-0.49844354,0.4728039,-0.2074488,0.46782082,-0.14908928,0.17674541,0.35310614,-0.056930184
0.06724271,-0.15776707,0.38805485,-2.9141724,0.5315651,-0.34503743,0.27258408,-0.0546439,-0.3716014,-0.12628242,-0.37038732,0.19577251,0.56481487
-0.03886894,-0.18336907,0.39131123,2.9601068,0.19563183,-0.06593888,0.18110746,0.15967882,0.43027347,-0.430654,0.5638868,0.12010606,0.036714733
-0.15780246,-0.09044741,0.35844022,2.697784,0.26401684,0.97194856,-0.41790593,-0.27960128,0.06711626,-0.31169435,0.37388092,0.08826421,0.20273858
-0.038083952,-0.17599861,0.28565407,-3.0293677,-0.39022064,0.23283526,-0.08821899,0.07445061,-0.10876742,-0.2479687,0.0018004179,0.045484617,-0.5130497
-0.03383358,-0.14434017,0.3646211,2.749181,0.55645865,0.34362847,-0.14472502,-0.35032502,-0.13243023,-0.16025087,0.42833966,0.41724724,0.11628091
0.02593559,-0.110402584,0.34454218,3.0776033,0.27082714,-0.6466175,0.32271665,-0.03877765,0.0023860335,-0.3353512,0.3306297,0.714409,-0.07184541
0.10333423,-0.06860344,0.3284707,2.9720125,-0.32173905,-1.1286961,0.51883584,0.17595732,0.44723946,-0.23691595,-0.05544132,0.66394365,0.16144478
0.066299856,-0.14761865,0.2998499,3.0420349,-0.23349111,-0.41476506,0.0045470595,0.3372172,-0.19001496,-0.20804045,-0.050276577,0.2680095,-0.39465606
0.051664982,-0.09647901,0.27025622,2.6031227,-0.96606696,-1.1407448,0.4962458,-0.3471824,0.15292746,-0.142519,-0.5644443,0.74343014,-0.41710538
0.08321608,-0.095065355,0.34304485,-3.1190715,0.2221818,-0.84432465,0.28322458,0.15582746,0.015793324,-0.22925094,0.2657904,0.63421226,-0.035304666
0.025844425,-0.15815777,0.35613626,3.1243873,0.23623405,-0.16531178,0.0685212,0.030435681,0.22175527,-0.21503302,0.25512666,0.27167082,0.20606136
-0.024139345,-0.14680208,0.34560767,-2.6160398,0.93020314,-0.6840896,-0.11470926,0.34132826,-0.5775219,-0.3627744,-0.09173375,0.52681315,0.5362727
-0.098485425,-0.12599494,0.3257644,-3.1399176,-0.008894321,0.1324966,-0.3502932,0.23162204,-0.037656903,-0.4571815,8.261204e-05,0.44335282,-0.046765566
0.01918555,-0.1426934,0.30654755,3.1238313,-0.45744255,-0.20277448,-0.27364957,0.19810587,0.2389487,-0.19843766,-0.020796776,0.46560794,-0.20301536
-0.15384865,-0.09138304,0.4154524,-3.01568,-0.19528256,0.9178922,-0.37957695,-0.2386815,0.45541257,-0.42464322,-0.35580882,0.14952043,0.5702856
0.053154364,-0.14327027,0.38766676,3.1131575,0.5405241,-0.20168218,-0.14042926,-0.21022168,-0.278457,-0.044786513,-0.01936543,0.58423364,0.30253416
0.11908447,-0.080030404,0.36271524,-2.9792817,0.64351785,-0.90623385,0.25587142,0.25262225,-0.48136333,-0.14538142,0.43050808,0.5680776,-0.29201454
-0.07759134,-0.10557283,0.3434654,2.6528585,0.53777397,0.48151767,-0.26212117,-0.3445099,-0.5189723,-0.29122776,0.16711754,0.56294954,0.031169176
0.059896454,-0.16069701,0.3287529,3.083922,0.06689745,-0.0630628,-0.30901885,-0.0118921995,0.06643367,-0.037736177,0.21092081,0.42547077,-0.06764382
-0.03933905,-0.19248001,0.31824443,2.949962,-0.01603715,-0.2740123,0.28331923,0.2565047,0.079066575,-0.54045194,0.54786676,0.30913526,-0.5170017
-0.060078517,-0.16318558,0.31020474,-2.6944065,-0.39614782,0.70304734,-0.43279296,-0.3094477,0.20158195,-0.080032766,-0.4010417,0.2146034,0.01404357
0.09207351,-0.14713654,0.3008718,2.8291903,-0.68162507,-0.51385474,0.510547,-0.11193505,0.27992558,-0.119012386,-0.22904971,0.12311736,-0.2314584
0.08403848,-0.13156278,0.3825339,-3.0205784,0.24281543,-0.75808597,0.47979957,0.22294015,0.37583297,-0.29435387,0.27701193,0.30561066,0.37219644
-0.05179938,-0.1682129,0.33283043,-3.0112836,-0.40374824,0.325167,-0.49560875,0.34787714,0.1797778,-0.25513816,-0.2348558,0.109839275,-0.011876702
0.01982325,-0.18513975,0.32739195,-2.9196115,-0.36170718,0.32440984,-0.41820192,0.039170027,0.24176311,-0.052755237,-0.48497495,0.16806903,0.31020945
0.03393472,-0.12761515,0.25672835,2.8320327,-0.3941504,-0.99108857,0.5408812,0.15249789,-0.32836094,-0.41727215,-0.357481,0.5931066,-0.5053454
-0.10563825,-0.10978507,0.33410212,3.1225693,0.9204801,0.035449896,-0.48619896,0.30356687,-0.4889055,-0.4543084,-0.14888647,0.5977452,0.56008714
-0.04756577,-0.1264219,0.31385577,3.05778,-0.23601674,0.25895298,-0.34514573,-0.26443765,0.13517427,-0.2278921,0.3407706,0.58924353,-0.36507913
-0.035207354,-0.16065562,0.33481008,3.0630088,-0.24293599,0.10484575,0.117342055,-0.2181802,0.40346718,-0.27966556,0.38262534,0.25537398,-0.19959685
-0.09846088,-0.14938428,0.34862855,2.8623066,0.20118427,0.83037114,-0.42589253,-0.32964054,0.36988652,-0.114418685,0.423855,0.052722655,0.2859869
-0.19104594,-0.07680913,0.40438917,-2.4556005,-0.638689,1.1656336,-0.5776059,0.14078203,0.5044076,-0.5220822,-0.43909502,0.08771764,0.009042442
0.04678463,-0.16673204,0.32697484,-3.1321027,-0.20195833,-0.14433482,0.038823426,0.14708069,-0.08848721,-0.17647716,-0.2600523,0.13328531,-0.029179752
0.069933854,-0.14646237,0.31238928,-2.7881787,0.39655247,-0.7208843,0.5336234,0.165452,-0.50163937,-0.3405612,0.010606289,0.2917022,0.013230741
0.066867486,-0.17639226,0.31498426,3.1273222,0.024051506,0.031066673,0.049705803,-0.12740952,0.18742925,-0.030464113,0.2897076,0.0769708,-0.07714504
0.0039785653,-0.14525083,0.33600825,-3.0836115,-0.12383217,-0.024236584,-0.20923188,-0.028942078,0.33180666,-0.20044574,0.059122026,0.4689552,0.14501464
-0.16336742,-0.029780045,0.3043857,-2.761877,-0.4462496,0.612838,-0.49565715,-0.077269286,0.08175695,-0.5472242,-0.12810925,0.5826541,-0.3843633
0.15268749,-0.015853703,0.3990263,-2.7374182,0.26526284,-1.3472987,0.501888,0.14844972,-0.44143084,-0.01407963,-0.18177801,0.6371607,0.24368596
0.02659709,-0.16152894,0.35094562,-2.9861634,0.25335383,0.065334834,-0.3387597,-0.2181983,0.19990128,-0.05816692,-0.13733715,0.5769904,0.5345735
-0.038646996,-0.17170347,0.35456872,3.12652,0.96929836,-0.034474432,-0.16515583,0.3427195,-0.20181978,-0.31061453,0.42633444,0.18019268,0.34867764
-0.004245341,-0.11307104,0.28020883,3.074214,-0.1664157,-0.44666207,-0.016437769,0.09279129,-0.40585607,-0.36579317,-0.2321457,0.71163684,-0.38442352
-0.017695822,-0.1972929,0.42672402,2.9606326,-0.092823744,-0.134925,0.43164724,0.1228106,0.4098239,-0.4827186,-0.20821074,0.035093978,0.4643374
0.09007445,-0.12523976,0.39624405,-2.792236,0.7394874,-0.6900359,-0.11715448,0.22453105,-0.22698456,-0.05448258,0.11473787,0.4647372,0.48116642
0.010556795,-0.14636092,0.34314138,3.0757496,0.41204935,-0.117031954,-0.16866267,0.10080579,-0.3137332,-0.22375706,0.12777543,0.42830053,-0.02308619
-0.058413066,-0.18201497,0.28342083,-3.100003,0.31322697,0.1830089,0.28121334,-0.12231265,-0.3226403,-0.3914916,0.2517116,0.04605923,-0.25464526
0.040169947,-0.16792765,0.32821542,-3.0964608,-0.2871957,0.020110158,-0.43283996,0.23271841,-0.33699307,-0.06862855,-0.40787917,0.24604869,-0.22405457
0.04998041,-0.17416872,0.35693645,3.126393,0.144978,-0.33454254,0.22333032,0.3269863,0.21251631,-0.29373673,0.21626431,0.06860358,0.12371868
-0.027624618,-0.18147385,0.36166394,2.8592677,0.3678918,0.55500275,-0.39297503,-0.21276076,-0.34203526,-0.03491026,0.15203917,0.14043896,-0.03446859
-0.016943783,-0.1861991,0.30842116,-3.0911193,-0.12631118,0.45911267,-0.5582958,0.09875831,0.24195242,-0.047938645,0.22322679,0.05088228,-0.11654833
0.0779662,-0.10603048,0.3090568,2.8156025,-0.24710299,-0.82169044,0.5320808,-0.1456904,0.41373193,-0.22334924,0.36133206,0.6092541,-0.31718284
0.13644049,-0.13782954,0.34763017,-3.044412,0.32845807,-0.34772,0.2391901,0.06956646,-0.4291603,-0.015204132,0.20207673,0.041536428,-0.28942633
-0.05932435,-0.1507771,0.35791516,-3.1123793,0.5546851,0.18117557,0.0721513,-0.3027106,-0.4032513,-0.2871406,-0.44525427,0.33865482,0.55928284
-0.058833804,-0.16853267,0.27742785,3.0078425,0.44005337,0.45882028,-0.3361311,0.1532216,-0.48363364,-0.3188856,0.5070737,0.09537147,-0.52147967
-0.008592516,-0.12711275,0.3393053,2.9086165,-0.018491885,-0.21142288,-0.084341556,-0.009101838,0.28020805,-0.30710405,0.53847915,0.61443484,-0.24258283
-0.028212592,-0.13116756,0.30890033,-3.1242054,-0.4656476,-0.12363329,-0.35986558,0.24080044,0.14391321,-0.30458468,-0.07604426,0.54349685,-0.25532192
0.11623915,-0.12399074,0.3132251,2.7690728,-0.41316897,-0.7406319,0.38167578,0.26359123,0.5770779,-0.16639525,0.14312583,0.17688616,-0.11258367
-0.02957436,-0.1866393,0.35178906,-3.065925,-0.16890654,0.5433136,-0.32479995,-0.13108836,0.3018995,-0.09001213,-0.3008317,0.008447518,0.41810977
-0.021146104,-0.11324595,0.28919324,3.126343,-0.63655084,-0.14977089,-0.27370906,-0.11104524,0.22811121,-0.23768476,0.05516863,0.7474287,-0.47417504
0.08301068,-0.15180191,0.3376082,3.076909,0.028885739,-0.19293198,-0.22242314,-0.023399174,-0.12022495,-0.02092737,0.039245427,0.46509117,-0.12793595
-0.04607506,-0.10559004,0.32398832,-2.907952,-0.4386352,-0.1436048,0.10154909,-0.2158578,0.17929131,-0.39526203,-0.3713724,0.72774434,0.058710575
-0.1265536,-0.14806798,0.33356208,3.11668,-0.07719643,0.12902446,0.20139825,-0.10273807,0.0469864,-0.55394226,0.07500291,0.3260773,-0.09863463
0.02884753,-0.1313526,0.28515226,2.976478,-0.66192997,-0.41839495,0.18552583,-0.2524658,0.34364456,-0.17542586,0.07016778,0.5805625,-0.41561317
0.046906896,-0.13529429,0.32268813,-3.040955,0.26146436,-0.5770633,0.5097658,-0.08882192,-0.33355337,-0.31145546,0.020338893,0.4575252,-0.07445544
-0.07467968,-0.11828522,0.27554363,-3.1194983,-0.72018373,-0.4747251,0.15228039,0.07825434,-0.08273962,-0.51168925,-0.54049146,0.69856054,-0.31031665
-0.12057146,-0.1418311,0.33828178,3.0676944,0.9567738,0.10126463,-0.13353288,0.17845416,-0.34472644,-0.4839561,0.070393145,0.38463783,0.5504623
0.01739847,-0.15195023,0.32119006,3.104676,-0.34776276,0.0417517,-0.57339513,-0.012540221,-0.4062147,-0.06376284,-0.27985933,0.60981053,-0.4635488
-0.0040155947,-0.1386965,0.28801298,2.9575162,-0.32085958,-0.509833,0.5605965,-0.2503348,-0.10808718,-0.3901602,-0.018765628,0.5614316,-0.45884967
-0.07600641,-0.20037541,0.33241737,3.068081,-0.7345696,0.067111626,0.16116291,0.19290507,0.29259926,-0.43814403,0.024649203,0.01788087,-0.4860003
-0.118027285,-0.124240935,0.38660407,3.0130827,-0.17276637,0.37930873,-0.41381538,0.15385681,0.47719485,-0.44396576,0.40795046,0.2749673,-0.030761719
-0.10738596,-0.0664512,0.36916363,2.4552643,0.5507252,0.5578182,-0.5200898,-0.13015576,-0.12953898,-0.3611555,0.5401203,0.6276202,0.21395773
0.021063559,-0.17019972,0.2946316,-3.1353803,-0.8107184,-0.061676238,0.08234453,0.0012407899,-0.11204177,-0.14133736,-0.45230114,0.10538447,-0.4714515
0.010000769,-0.18392886,0.3421531,2.866006,0.4154917,0.38439044,-0.2126104,-0.16764882,-0.54497284,-0.085419714,0.43878704,0.18165451,-0.49561274
-0.059543997,-0.12892884,0.38538572,-2.9309967,0.31676832,-0.40333948,-0.10041374,0.31533074,0.11494994,-0.5087817,-0.0838646,0.6860031,0.5501116
-0.10035166,-0.15348205,0.2931442,3.0474355,0.13539939,0.5409577,-0.1292651,-0.14833568,-0.13685417,-0.33796936,0.503295,0.09568057,-0.46943814
-0.15915002,-0.11956823,0.36412066,-2.6046019,-0.7542922,0.96016955,-0.029163837,-0.3248388,0.5720759,-0.39712363,0.04145199,0.04405851,-0.37710392
-0.060689464,-0.14079969,0.2992865,-2.8000455,0.43947977,-0.37710887,0.37111437,-0.13836248,-0.47864914,-0.5231462,-0.36766112,0.5770353,0.3535146
0.069104195,-0.12848888,0.36801356,-2.982828,0.08114569,-0.50779045,0.064121425,0.1984219,0.41514337,-0.22032577,0.014997363,0.4853807,0.5367215
-0.0065217167,-0.16382554,0.40385318,3.0458949,0.049316365,-0.11530375,0.28979868,-0.08260539,0.556209,-0.3489382,0.17134976,0.22136371,0.42475373
0.013576008,-0.17648572,0.31926224,-2.662691,0.15293507,-0.7485313,0.49501592,0.3026952,-0.3266624,-0.54459083,-0.49787518,0.48591486,0.5525121
-0.2046733,-0.044140406,0.34982297,2.507043,0.59286636,0.7910651,-0.28056964,-0.09575486,-0.13956636,-0.5982169,0.36298352,0.37845764,0.3597721
-0.14642169,-0.031648025,0.24018762,-2.7519553,-0.15813644,0.3503028,-0.24537578,-0.20869547,-0.3760514,-0.6071428,-0.5526297,0.6478347,-0.22338504
0.0034154654,-0.15294535,0.3452008,-2.7584164,0.20515463,-0.67386115,0.33039093,0.23346055,-0.18656379,-0.46889377,-0.36093622,0.569555,0.51599115
0.10398449,-0.12585746,0.28822437,3.1239634,-0.4226936,-0.45917833,0.16999906,-0.14485985,0.40438735,-0.037104607,-0.005574465,0.46616012,-0.014344037
0.017212696,-0.16155705,0.29039666,-3.1334198,-0.7328849,-0.060836453,-0.10885993,0.03452894,0.50530666,-0.13764882,0.056849003,0.26633295,-0.28502178
0.05185037,-0.16694027,0.30451986,-3.0651622,-0.64080995,-0.012072611,0.09307289,-0.29989457,-0.08657193,-0.026022673,-0.41437536,0.25547925,-0.3226705
-0.11358764,-0.12421121,0.29661787,2.8694317,0.26395643,0.27121955,-0.06872392,-0.02846381,-0.24396187,-0.52282166,0.5319174,0.4617783,-0.40601772
-0.034130834,-0.17144674,0.3408244,3.096743,0.23245548,0.18156998,-0.11527106,0.07285711,-0.061333418,-0.258631,0.08605224,0.12527254,0.09048653
0.040262334,-0.14078881,0.28573725,-3.019522,0.043661613,-0.78166074,0.4614733,0.25504428,-0.40069604,-0.44442248,-0.16486943,0.4887839,-0.13820952
-0.11982414,-0.12556708,0.36984384,2.99621,0.21800649,0.54080296,-0.2578449,-0.12924857,0.09641844,-0.35508108,0.0026425123,0.2147726,0.35392118
-0.015642405,-0.11719304,0.28080449,-3.0751386,-0.07626046,-0.6933887,0.05883497,0.35068184,-0.35388207,-0.49185243,-0.28435707,0.7470951,-0.150419
0.009966336,-0.17005612,0.36052394,3.0772126,0.42733744,-0.022099363,-0.22929037,0.31442297,0.228306,-0.20731401,0.4216289,0.1394863,0.23614365
-0.14449757,-0.13720073,0.34511542,-3.0335956,-0.12099804,0.32832968,0.036670744,-0.07135233,0.040683985,-0.5379081,-0.29632127,0.25961593,0.17681026
-0.10915384,-0.06704229,0.3554232,3.0491352,-0.17124866,0.24575132,-0.22850138,-0.25254983,0.25253415,-0.4831591,0.29046822,0.7013559,-0.118641675
-0.036493003,-0.1050078,0.38321728,2.9917657,0.26598057,-0.30271176,0.10407078,-0.14884573,0.33065146,-0.40327173,0.49667495,0.721899,0.15175533
-0.10033697,-0.108673036,0.41890374,-3.1308422,0.24557328,-0.16525702,0.1680947,-0.1052428,0.33262956,-0.5836466,0.09621209,0.66848946,0.5000836
0.05044201,-0.1412622,0.3036198,3.101615,-0.598204,-0.2404945,-0.28507057,-0.14725587,-0.2593152,-0.032678723,-0.40286058,0.66749847,-0.48470113
-0.16793501,-0.13870107,0.3584282,-3.1059964,-0.1420818,0.61845875,-0.38477856,0.2523163,0.115314364,-0.4850099,-0.13702264,0.002501619,0.1027143
-0.118995026,-0.1562291,0.34935495,3.0652912,-0.13702199,0.44169292,0.09588426,-0.2123984,0.30185407,-0.40729275,0.4252494,0.066329755,-0.2300849
-0.13133092,-0.09036487,0.30784118,2.7442064,0.81851083,0.29580402,0.19680095,-0.34667623,-0.45295992,-0.5554909,0.3195141,0.6086072,0.15117836
0.086319014,-0.15149134,0.3474103,3.0819845,-0.36298573,-0.33350858,0.28783023,0.07965493,0.2719401,-0.1851444,-0.45979053,0.16415851,0.36371017
-0.024927054,-0.15660155,0.3185476,-3.0299835,-0.13315393,0.31963417,-0.33350784,-0.26065013,0.5139583,-0.11613184,0.20346045,0.3967786,0.14492553
-0.05990629,-0.14264706,0.33016512,-3.046713,-0.3236051,0.13049984,-0.3138364,0.16920745,0.16242051,-0.3404609,-0.13417542,0.37254012,-0.04510355
-0.108625025,-0.094716184,0.3714554,2.8128512,0.80847645,0.0071659507,-0.3615777,0.27463973,-0.08752635,-0.49097383,0.5226597,0.6699197,0.29421085
0.06233695,-0.16133514,0.3267109,3.1184583,0.05769656,-0.113359295,0.17831999,-0.22550899,0.20383549,-0.08603513,0.25522316,0.24490152,0.008359015
-0.15524611,-0.034769535,0.40739745,2.545588,0.22309434,0.9002202,-0.5342207,-0.3226585,0.33818442,-0.39903978,0.56757146,0.34364924,0.40441853
-0.050381776,-0.14915603,0.2783718,3.0658298,-1.0697119,-0.3062873,0.32259685,-0.18348818,-0.0041128993,-0.3312232,-0.53021276,0.38848904,-0.5680685
0.14308101,-0.08109214,0.3407495,3.1263683,-0.028848603,-0.79946315,0.059901357,0.25271297,-0.16316259,-0.04081726,-0.17165497,0.52674097,-0.026902318
0.09826914,-0.14441341,0.37323067,-2.576968,0.79136205,-0.72501147,0.23205078,0.28367704,-0.47499144,-0.11865288,0.13554865,0.09112973,0.32526338
-0.059801795,-0.19958472,0.36808798,-3.1089604,-0.11467468,0.05839087,0.29000574,0.077396065,0.01774019,-0.47575444,-0.57943237,0.060691923,0.4783829
0.084012985,-0.15412168,0.30932307,3.1131568,-0.20305623,-0.2175424,0.27346927,-0.24247247,0.25164855,-0.06171602,0.12385911,0.24379288,-0.0771302
-0.15080306,-0.1565817,0.26961678,3.0680473,0.8023387,0.3348251,0.033762038,0.11317867,-0.4780659,-0.59547657,0.11541003,0.18311743,0.23637545
-0.073361725,-0.16978739,0.4515213,2.950387,0.46509603,-0.11191563,0.269759,0.096933395,0.49372715,-0.52869576,0.4552496,0.2052437,0.4733892
0.054758154,-0.12719567,0.2736308,-2.9696882,-0.587196,-0.25881615,-0.48850313,0.1783905,0.49791068,-0.064198256,-0.057362735,0.6753986,-0.06473535
-0.11126703,-0.13324112,0.34566665,-2.0828953,-1.3834674,0.9446275,0.13320005,-0.13879272,0.57424,-0.4218856,-0.47522545,0.4052536,-0.4590812
-0.020471867,-0.18359599,0.33785608,2.9039974,0.44617918,0.4878461,-0.5647907,0.14657807,0.5525281,-0.021582961,0.54910344,-1.920294e-05,0.5049173
-0.015613146,-0.13406429,0.39747447,-3.113589,0.16888285,-0.13457114,-0.1493839,0.072102964,0.56457025,-0.32752284,0.2177912,0.51860404,0.53548425
0.0664182,-0.16481811,0.35863134,-3.046725,-0.07426632,-0.09400026,0.11136103,-0.06632301,0.1038931,-0.12422705,-0.48416847,0.2069017,0.5145609
-0.08566232,-0.19161499,0.29332086,3.1017652,0.5866066,0.23118564,0.04641968,0.2099163,-0.22079986,-0.47116938,0.5595191,0.016723419,-0.17612845
-0.14640577,-0.05215518,0.3657858,-2.939825,-0.69833755,0.38357013,-0.12471625,-0.28807375,0.48175627,-0.5810048,0.16191542,0.6722808,-0.36733937
-0.065420225,-0.17048627,0.37130812,3.1194592,0.1094331,0.4715026,-0.33737785,0.06319055,-0.060486853,-0.23215368,-0.46445295,0.04052283,0.5123516
-0.049149808,-0.17805177,0.35923466,2.546264,0.5865663,0.81387067,-0.31209043,-0.33246824,-0.50549525,-0.06542057,0.5232075,0.09766242,-0.218665
0.077322744,-0.15602791,0.3614355,-3.0546806,0.025308196,-0.3310609,0.17784423,0.20328712,-0.0750559,-0.19578955,-0.4627452,0.15747105,0.4348634
0.05957903,-0.16677973,0.28928855,3.0690577,-0.43613377,-0.13227111,0.14009273,-0.068056375,0.5158413,-0.084477425,0.3101892,0.12390289,-0.23382431
0.04282382,-0.13065037,0.35810536,3.1328766,0.53931737,-0.44836172,-0.010400653,0.1873908,-0.0024270415,-0.2282596,0.5028562,0.4974251,0.03852302
0.07599747,-0.13952583,0.3036266,3.0289235,-0.57976586,-0.4222821,0.42049748,-0.29553625,-0.12110326,-0.10528916,-0.44413686,0.34850824,-0.27700529
-0.00095815957,-0.13259992,0.31508282,3.1387777,-0.2899132,-0.36041492,-0.15288031,0.28479797,0.009111047,-0.3310664,-0.18395749,0.5540797,-0.107316226
0.009259276,-0.1520884,0.36195642,-3.0886374,0.28304973,0.016558433,-0.38443452,0.060067922,0.12900841,-0.14927813,-0.04049909,0.46270084,0.44132334
-0.109900765,-0.13713339,0.3404373,3.0154827,1.224619,0.005705232,-0.20771518,0.2787354,-0.39556316,-0.45485398,0.32206732,0.45476952,0.5350744
0.030730836,-0.12827538,0.3176508,-3.1270287,-0.218271,-0.18076506,-0.32054096,-0.0880135,-0.11958262,-0.1330572,-0.18142122,0.71784395,-0.17528144
0.08516582,-0.12916598,0.30465198,3.008611,-0.33739027,-0.5153726,0.28337562,-0.071321905,0.45755404,-0.13374922,0.1963951,0.40605962,-0.09874627
0.11042655,-0.09636545,0.39642343,-2.8140175,0.7590359,-0.89589727,-0.084329665,0.16576326,-0.1992099,-0.015428305,0.3433016,0.644511,0.31337965
-0.086526945,-0.12962696,0.34512123,-2.9615808,-0.7622889,0.24667092,-0.40657288,0.20210105,0.5538818,-0.38634697,0.01890999,0.41338155,-0.24267739
0.019709304,-0.12578328,0.27576688,3.0967138,-0.81968284,-0.35444948,0.03889358,-0.2568726,0.18185097,-0.14421734,-0.21583083,0.6462211,-0.46165222
-0.020443812,-0.16359068,0.39409205,3.0652862,0.1211943,-0.1792029,-0.055198014,0.32425088,0.39772475,-0.393979,0.19837767,0.27854338,0.31142485
-0.06566733,-0.20227759,0.40155727,-3.043782,0.71239334,-0.28108492,0.40329552,0.15942597,0.121944964,-0.5245267,0.26178122,0.17236641,0.57011956
-0.17839804,-0.09697366,0.35579678,-2.590773,-0.71357095,0.963881,-0.25082785,-0.14381045,0.48844403,-0.44722342,0.08597338,0.12127973,-0.47811434
-0.07868393,-0.1260562,0.40437636,3.0628126,0.22152995,-0.0051000654,0.056837916,-0.102616355,0.35613078,-0.45944196,0.19873583,0.48729065,0.40227437
-0.12069616,-0.12663451,0.3653847,3.0348635,0.15039511,-0.094506115,0.3714192,-0.22973105,0.114139915,-0.61136806,0.2158956,0.56087977,0.07086223
0.06523329,-0.14669193,0.3168737,-2.939277,-0.00925019,-0.6917286,0.37076432,0.3350649,-0.35753703,-0.36160308,-0.46999848,0.33588472,0.20850271
-0.06525716,-0.13093269,0.30788693,2.7788444,0.15491693,0.4536101,-0.23258051,-0.2758988,-0.42272973,-0.3032753,0.46910006,0.4974886,-0.55274546
0.063475534,-0.16527376,0.2939903,-3.0326715,0.39920253,-0.1857952,0.16551316,0.13813922,-0.56536233,-0.23475331,0.37541044,0.11148906,-0.52203745
-0.09695427,-0.151118,0.32781252,-3.1270711,-0.17084785,0.432934,-0.29535428,0.055069476,0.15849239,-0.32906628,0.20544136,0.13850543,-0.20912936
-0.08239525,-0.14536059,0.3480515,2.6804929,0.84957,0.45501366,-0.5219264,0.35087,-0.23332018,-0.31768835,0.5405856,0.25525588,0.17441106
-0.2022767,-0.092567086,0.29681772,-2.2996306,-0.69601846,1.0219933,-0.3040425,0.02319771,5.1558018e-05,-0.47515702,-0.53515136,0.0487462,-0.49948418
-0.0032381937,-0.1376407,0.30416775,2.6055927,-0.8202133,-0.89631325,0.32801688,0.06922519,0.33066636,-0.36737424,-0.19240841,0.5963462,-0.445901
-0.020541042,-0.13244833,0.32598302,3.1222334,0.36270484,-0.19768007,-0.31200498,0.31277382,-0.3421108,-0.3444046,0.04254031,0.5482653,-0.01981002
-0.044928204,-0.16983788,0.29477316,-3.0371702,-0.4460628,0.31620303,0.0052253604,-0.19118816,0.14453858,-0.21179295,0.17985487,0.11110607,-0.49102792
-0.13101937,-0.08613716,0.31276843,-3.1127284,-0.02500034,0.14205585,-0.20774055,0.010886043,-0.09376404,-0.56600606,-0.051821113,0.6188577,-0.08027679
0.08168888,-0.115905106,0.35302472,-2.6714127,0.32282773,-1.091015,0.5435093,0.29476303,-0.25065294,-0.33425274,0.000664711,0.50220335,0.31417876
0.13513839,-0.05154265,0.35831326,-2.870184,0.023907268,-1.1953908,0.55081993,0.30717444,-0.16839471,-0.17642182,-0.26944494,0.51961476,0.33703017
0.07529226,-0.10088216,0.29410422,2.6882915,-0.5408262,-1.0968119,0.50740355,0.093509555,0.11596513,-0.25309488,-0.3230455,0.5940292,-0.27886984
0.045500703,-0.18249844,0.29194295,2.4002097,-0.92776376,-0.88894033,0.55796915,0.17743087,-0.023570776,-0.29452828,-0.55780166,0.05065564,-0.5780489
-0.08783275,-0.15566787,0.3298303,2.9578247,0.6705379,0.24343678,0.20273489,-0.20083393,-0.25096497,-0.40160567,0.33414364,0.23544683,0.118377805
0.07294455,-0.13375315,0.37493023,-2.877722,0.63767016,-0.6006249,0.06337547,0.18972468,0.12046325,-0.14210078,0.3794003,0.37329486,0.438641
0.0949892,-0.112191975,0.348799,-2.9797208,0.21297126,-0.70280635,0.3079716,0.06945971,-0.55071557,-0.1713629,-0.33679855,0.46350825,0.041271925
-0.17192943,-0.08676782,0.27307832,3.045403,0.27352208,0.7148004,-0.46605012,0.068178,-0.37534922,-0.51582044,0.036691606,0.20894845,-0.12415627
0.08098202,-0.15477747,0.29163945,3.109931,-0.7322697,-0.22598876,-0.2909069,0.3086269,0.26482248,-0.03712088,-0.3435952,0.22654426,-0.12687701
-0.122752555,-0.115920916,0.31536114,2.8432975,0.30190173,0.80704254,-0.34174645,-0.32152107,-0.38096035,-0.2880799,0.17432475,0.19960357,-0.12904924
0.0024224073,-0.13677359,0.33258316,3.0761788,-0.075364895,-0.1246362,-0.3752111,0.1950255,0.24310684,-0.23405847,0.25132704,0.5312281,-0.067159295
0.058823947,-0.1655362,0.36656618,-2.8050413,1.1402568,-0.39380246,0.52136785,-0.31516993,-0.33264613,-0.09262675,0.5786279,0.06886567,0.25567138
-0.03636627,-0.17373449,0.26770547,-3.0942726,-0.6405253,-0.113712125,0.36343235,-0.086170375,-0.25368717,-0.3619164,-0.40243185,0.1668937,-0.48544723
0.008481942,-0.16772148,0.28412762,-3.0728176,-0.6443401,0.08991301,-0.4249399,0.24263883,0.17831206,-0.1124593,0.023179293,0.22380404,-0.49272344
-0.14328404,-0.14156298,0.35433704,-2.8801916,-1.1423045,0.16297959,-0.11840266,0.31386232,0.3821317,-0.59346175,-0.49458697,0.43675193,-0.32407895
0.004963666,-0.14222328,0.31812567,3.088945,-0.5542771,-0.4270725,0.42996353,-0.15233222,0.16368341,-0.34221426,-0.3385356,0.48032054,-0.06467432
-0.18255562,-0.01033733,0.31033424,-2.5824528,-0.4331568,0.792487,-0.42516327,-0.1906217,0.11519599,-0.5725157,-0.2675837,0.50907207,-0.3335526
-0.039216235,-0.15017608,0.37609792,-3.1093454,0.559279,-0.3918226,0.5335552,-0.21034881,0.0722931,-0.44531852,0.38814527,0.47498953,0.2599252
-0.008268464,-0.11433795,0.30307162,2.297658,-1.1587732,-1.384217,0.050253987,0.30958962,0.5010535,-0.33720437,-0.56169176,0.7446397,-0.2949064
-0.10085564,-0.10819267,0.32238197,3.12102,-0.22849715,0.015862329,-0.2917165,0.17385155,0.060486674,-0.4992937,0.053620934,0.600735,-0.21220097
-0.13761732,-0.09069987,0.2882902,2.9001055,0.20596775,0.37285447,-0.37977713,0.11989057,-0.29106882,-0.5591134,0.35602564,0.5258203,-0.32636288
-0.1680057,-0.10341832,0.34960052,-2.761523,-0.39316133,0.6986154,-0.059928954,-0.24638389,0.15324807,-0.50159997,-0.52377766,0.20974362,0.122612774
0.014161304,-0.13242617,0.29763454,3.0646148,-0.25327143,-0.2887421,0.2609797,-0.29237825,-0.2506953,-0.2532541,-0.13856545,0.55974436,-0.38593856
0.02416052,-0.11798,0.34354135,-2.9499724,0.09566904,-0.29191115,-0.15589222,-0.0995599,-0.29268134,-0.20457575,-0.45335233,0.74733627,0.22949296
-0.09993429,-0.140727,0.31138334,-3.0818436,-0.3349388,-0.26462826,0.028071582,0.25958562,-0.0056048036,-0.60414356,-0.26287735,0.5839063,-0.09393513
-0.18662682,-0.08189823,0.30721498,-2.2687163,-0.7850162,0.9917253,-0.12674364,-0.23420385,0.1538105,-0.45538896,-0.39972275,0.20693447,-0.55791545
-0.08767784,-0.16677836,0.34019017,3.010326,-0.55083525,0.05289302,0.16692603,-0.0460003,0.38222408,-0.4542334,0.34582984,0.25549412,-0.50154996
0.06124268,-0.1189954,0.34240997,-3.0681252,0.5196487,-0.6116421,0.44956297,-0.14245176,-0.43531045,-0.24427617,0.209405,0.5563198,-0.12720728
0.14882779,-0.103129104,0.32728577,-3.076873,-0.09154373,-0.6080236,0.3065151,0.05094683,0.32457978,-0.028214753,-0.0702647,0.3004087,0.34305835
-0.04801552,-0.16570643,0.35339788,2.9012182,0.33661094,0.47423053,-0.3185338,-0.1443018,0.4852367,-0.12411857,0.5459717,0.12608534,0.3498668
-0.066165715,-0.1714201,0.37847614,3.016814,0.7610088,0.06346855,-0.1482532,0.32026166,0.07173693,-0.37047392,0.4186169,0.16093244,0.4221192
-0.100945905,-0.15063623,0.30706525,-2.8104663,-0.94902927,0.40716082,0.23854858,-0.33055574,0.27300864,-0.34196067,-0.15696469,0.20726101,-0.56338316
-0.086462714,-0.13359389,0.2998366,-3.1037073,-0.049821105,0.08951491,-0.108707964,0.037701786,-0.18814114,-0.4431244,-0.0718137,0.4197371,-0.1755971
-0.20890012,-0.019138277,0.35761958,-2.4833252,-0.6862139,0.98900384,-0.23100552,-0.27898952,0.3959415,-0.6136173,0.0037139058,0.40135396,-0.5250004
0.08982252,-0.15041144,0.3413274,3.1145606,-0.05904934,-0.24252716,-0.20792621,0.20048493,-0.31380814,-0.046280563,-0.22477946,0.2947503,-0.15284723
-0.055381253,-0.17968756,0.29407763,-3.0993645,0.016744783,0.29721135,0.30511582,-0.3007828,-0.14892876,-0.30193844,0.21912247,-0.0032285633,-0.3576352
0.09213719,-0.12168266,0.2756466,3.1300428,-0.6348603,-0.48894373,-0.30732068,0.31984228,0.4954856,-0.050698757,-0.12370291,0.52228934,-0.017871201
0.112635404,-0.1189875,0.3041879,2.8890452,-0.2766286,-0.5764368,0.42182952,-0.3011042,-0.14001876,-0.060190618,0.013304293,0.4973022,-0.5055953
-0.09974153,-0.12448907,0.30920166,-2.4796982,-0.6555947,0.724268,-0.2107706,-0.29869676,0.17617285,-0.26019245,-0.5693509,0.278392,-0.15748447
-0.13390362,-0.1332658,0.3854892,2.8305573,0.4913504,0.35890013,-0.41331857,0.3315884,0.14588696,-0.472173,0.40654284,0.2392712,0.3078385
-0.13143702,-0.06575694,0.403806,3.1081269,0.28918397,0.07688489,-0.016723573,-0.20781377,0.23079133,-0.60223514,0.067025065,0.74766225,0.4700231
0.068841614,-0.11605207,0.3167246,2.974727,-0.10501042,-0.4962449,0.024804294,-0.044526577,-0.15052435,-0.15344805,0.035392046,0.6770914,-0.33008033
-0.0672203,-0.16040201,0.3711572,2.8362682,0.38438618,0.61655456,-0.43921903,-0.118264094,0.40080202,-0.121525824,0.31484288,0.10354369,0.57245356
0.07605537,-0.13229239,0.30464438,3.1005776,-0.39581153,-0.40836698,0.3652392,-0.32537088,0.2246803,-0.11298257,-0.086589545,0.46886867,-0.09228879
0.15124714,-0.07580653,0.3654245,-2.7915435,0.33656293,-0.9539074,0.41781777,0.26850617,-0.085922,-0.07760984,0.13845676,0.27824277,0.26030213
0.14636049,-0.038841113,0.32567626,3.1184871,-0.22167055,-1.1231827,0.5423042,0.07677227,0.10980493,-0.087922156,-0.24107456,0.6077756,0.17854917
-0.018631242,-0.16441923,0.30639297,3.1406827,0.8454736,-0.11442652,0.019622803,0.24506807,-0.47832376,-0.39233482,0.5629857,0.30962214,-0.17508969
-0.124589585,-0.08257204,0.3669123,-3.0226116,0.048734345,0.70833725,-0.40836364,-0.34868816,0.2269805,-0.36448166,-0.25457653,0.44683775,0.4178425
-0.14741564,-0.1404553,0.39199594,2.8292453,0.61838686,0.32255968,0.26879,-0.23497397,0.1162855,-0.52124923,0.37106568,0.22830437,0.42427856
-0.18097892,-0.12326455,0.27727878,2.8058581,0.6062413,0.80343163,-0.4431236,0.2765417,-0.35798374,-0.5273207,0.34702748,0.029461225,0.0030828714
-0.08693639,-0.14965329,0.2970476,3.0705848,0.11921653,0.049747735,-0.10507381,0.19637293,-0.18963745,-0.4910458,0.24852222,0.3754419,-0.29778183
-0.120408624,-0.06935709,0.3180297,-2.987526,-0.09431054,0.21605608,-0.11800003,-0.25362888,-0.042631865,-0.51912695,-0.21858391,0.67988795,0.003357172
-0.09959232,-0.092338756,0.28105488,-2.782758,-0.54074144,0.17095938,0.006101489,-0.2953244,-0.11303729,-0.43013725,-0.51438594,0.598716,-0.26741412
0.05944503,-0.1357407,0.32283983,3.080374,-0.104664885,-0.45727584,0.46152943,-0.20798793,0.03001964,-0.21917143,0.03640443,0.42013213,-0.124697804
-0.020707414,-0.14997652,0.34066236,3.0804281,-0.5292253,-0.3452389,0.30489987,-0.010512918,0.29565442,-0.4143985,-0.24176568,0.46307075,-0.006814599
-0.0056310967,-0.18159758,0.38657403,3.0531106,0.42294335,0.3005974,-0.5007896,0.24327737,-0.53776914,-0.07884848,-0.46591356,0.051779747,0.35761225
0.038367555,-0.13326368,0.3252409,-3.0224667,0.25405,-0.66863334,0.27972007,0.21810907,-0.25929743,-0.3583931,0.044298112,0.5166762,-0.0216313
-0.097469166,-0.09476268,0.33343023,-2.8539138,-0.37735072,0.51321524,-0.56909263,-0.092409015,0.3965755,-0.33067352,0.0065156817,0.5307004,-0.081151426
0.035993263,-0.15185048,0.32236308,3.0019367,0.09465109,-0.29043612,0.37519264,-0.14775045,0.07095724,-0.26492366,0.4885884,0.35773444,-0.33972308
-0.057597727,-0.12567379,0.27654463,-3.1170053,-0.58232415,-0.06906948,-0.11329651,-0.023480266,-0.11378786,-0.3524984,-0.16277477,0.5447267,-0.5522906
-0.05494135,-0.1716104,0.35215235,-3.118031,-0.6245005,0.23545073,0.21385092,-0.22762907,0.54598266,-0.31341127,0.055288732,0.10286104,-0.13438305
0.13762671,-0.038105454,0.373345,-2.9207604,0.29196924,-1.1967702,0.37908214,0.17183691,-0.3884828,-0.07319999,-0.05955565,0.68172234,0.041481078
-0.13891512,-0.0811878,0.3643817,-2.865442,-0.46848357,0.23373933,-0.2235609,0.052307695,0.33037716,-0.60247564,-0.2864578,0.63875085,0.05235493
-0.094754934,-0.15937123,0.38846704,-3.0657365,-0.25712803,0.6302906,-0.29474664,-0.027071893,0.31064546,-0.30489287,-0.46631247,0.005127782,0.5106234
-0.07945272,-0.15009692,0.36405766,2.609873,0.7024447,0.66617674,-0.16118294,-0.26306194,-0.087688565,-0.19028538,0.44253963,0.14098723,0.3251499
