x,y,z,R,P,Y,t1,t2,t3,t4,t5,t6,t7
-0.09951925,0.019189786,0.3784735,0.36682886,1.2533277,1.6057854,-0.39419997,-0.5405708,-0.44528544,-0.22478998,0.9110304,1.2092185,1.1149231
-0.16483709,-0.054997414,0.20893493,2.7869692,0.29118076,1.2274021,-0.1820212,-0.60794276,-0.6610959,-0.5212591,0.5896311,0.18694867,-0.7637404
0.07529603,-0.11761375,0.3644793,2.4937603,0.10175872,-1.3989514,0.6704165,0.56552553,0.5104611,-0.54234535,0.43857574,0.7262616,-0.45429528
-0.10023921,0.27104405,0.5472809,-2.3104658,-0.46913832,2.04699,-0.4755622,-0.6581455,0.7004008,-1.1846236,0.53134537,0.49928123,-0.54598147
-0.054125145,0.036400232,0.3271651,-1.9952554,-1.0859215,0.44182378,-0.41729128,-0.70467585,1.0515314,-0.42035502,0.15567029,1.4726377,-0.707342
-0.22414511,0.1897354,0.65590906,-1.6782124,-0.23363495,2.3389761,-0.12425995,-0.32352576,0.9008554,-1.2031224,-0.7027435,0.03621816,-0.27789408
0.09591448,0.07417889,0.4084034,-2.5669546,1.3478371,-1.8799973,1.1238507,0.10334784,-0.8262157,-0.1006223,0.8956748,1.3466362,-1.0736545
0.032185953,-0.15393943,0.32232392,2.615397,-1.3188695,-0.7642108,1.1294218,-0.6831902,0.4093305,-0.30422324,-1.1435397,0.33833253,0.18723226
-0.18258947,-0.12629884,0.400263,1.1713331,-1.2026466,-1.9131309,-0.017892957,0.25057238,0.6727977,-0.7312242,0.13356555,0.8042095,-1.1328899
-0.14875756,0.031512134,0.106993705,1.5468802,0.38793734,2.0395494,-0.49620122,-0.32028186,-1.1514314,-0.78585815,0.44509554,0.24434477,0.12481654
-0.13311745,-0.12551801,0.33411393,1.9851941,0.7679263,1.4241211,-0.21695393,-0.45436805,-0.84081995,-0.19892168,0.21454787,0.0050820643,0.22797275
-0.20319903,0.058795236,0.44985563,-2.0996237,-0.8754487,0.5052345,0.5627217,-0.56970096,0.67089856,-1.0566312,-0.720931,1.2907987,-0.08533728
-0.07698381,-0.12327945,0.43727335,2.26961,-0.99658465,-1.3899102,0.2560066,0.566573,0.7951833,-0.8105575,-0.49374914,1.0348661,-0.040239334
-0.012968961,-0.101557866,0.35269764,-1.2105751,0.51535445,-2.5684392,0.7813041,-0.18995285,-1.0835706,-0.31083465,0.28586316,1.0670779,0.7368525
0.13754229,-0.064118326,0.33458865,-2.6355171,0.86426145,-1.0739745,0.6813941,0.2757606,-0.84510404,-0.2878735,0.92816794,0.5851396,-0.8421889
-0.2869187,0.042498797,0.062162418,2.4065561,1.253251,1.6656805,-0.019809365,-0.03722453,-0.9079107,-1.2073209,-0.7546332,0.37603232,1.096532
-0.107691586,0.3951247,0.39812362,1.8694681,-0.72711736,1.6191217,-0.82353926,-0.36316702,0.11825657,-1.1257105,1.131894,0.048848424,0.26878822
-0.09921985,0.09473359,0.3647102,3.0739505,0.98416287,1.3923717,-0.82452154,-0.502746,0.14306307,-0.709461,-0.96866035,1.2576458,1.0197846
-0.17676559,-0.01571834,0.09248017,-2.7070622,-0.13661112,0.6331886,-0.26778913,-0.03505993,-0.7055872,-0.8034092,0.034097314,0.3647236,-1.0568118
0.0037416592,-0.034330837,0.37418717,2.8355324,0.4568425,-0.18114783,-0.4468155,-0.6276159,0.25808024,-0.21281433,0.6302513,1.4437593,0.40500605
-0.09149714,-0.0412313,0.41618866,-1.7146175,-1.1887394,0.78172255,-0.030866623,0.20148021,0.9343473,-0.6970606,-0.80643696,1.1976757,0.10996187
-0.07285946,-0.05135879,0.18852577,-2.671959,0.3315924,-0.23245007,0.43628895,-0.6575468,-0.92746997,-0.6807011,-0.8527261,0.8235068,0.054347992
-0.01638737,-0.16464713,0.20716245,-2.912925,0.81946915,0.0807311,0.6974684,-0.51258266,-0.97517586,-0.47515637,0.2983253,0.10749066,-0.42591417
-0.3297683,0.0266103,0.2954508,2.9287229,-0.66655034,0.606002,0.6489905,-0.6934406,-0.00659132,-1.1792699,0.772169,0.84226274,-1.0375581
-0.007407915,0.048212275,0.24046367,2.914222,0.035244886,0.5081284,-1.0246195,-0.3651308,-0.73365307,-0.62392837,-0.38243306,1.4548817,-0.29287368
0.020372123,-0.11835884,0.3012177,2.3797169,-0.313228,-0.7166915,0.72510624,-0.5505905,0.31394577,-0.33979976,0.7057165,0.9024606,-0.9123844
0.12709935,-0.13523404,0.17681234,-2.9223824,-0.018589325,-1.0896736,1.0067085,0.5387541,-0.58056384,-0.65742844,0.56113374,0.2580522,-0.88321906
-0.1476588,0.09132528,0.35993952,-3.1001158,-0.33297718,0.86979824,-0.8922913,-0.060435295,0.19758058,-0.7457465,0.328367,0.8444129,-0.27151906
-0.17027986,-0.11201513,0.2539824,-2.9089844,-0.23559405,0.23590201,-0.0002193451,0.013868511,-0.25695664,-0.65327895,-0.2809167,0.38591492,-0.27178115
-0.12407358,0.06375415,0.35548428,2.7915826,-0.40873212,-0.34962872,-0.22807997,-0.16218853,0.2641281,-0.8063507,0.36558938,1.4708444,-0.32352996
0.051619634,-0.082437605,0.40690985,-2.5367584,-0.23208964,-0.9252944,0.49221206,0.16319829,0.49109018,-0.44001335,-0.29439712,1.0843339,0.9977187
0.12798253,-0.118109375,0.39961022,-3.042483,0.33919543,-1.1133254,1.1233994,0.1145218,0.5870614,-0.3971401,0.8179028,0.16313066,0.01591289
-0.055367164,0.12068732,0.5309928,-2.0511172,-1.1934464,1.8300608,-0.5989149,-0.6449894,0.9255327,-1.0144389,1.1435667,1.0935056,-0.74855757
-0.085363105,-0.30708814,0.1493169,-1.1983625,1.1405281,-1.6770781,0.8808192,0.4990636,-0.6258206,-1.0634981,1.1360449,0.30663595,0.24226451
-0.05460857,-0.04009551,0.2360693,1.1476934,-1.1755655,-3.111688,0.0014322996,-0.5699463,0.84133303,-0.060085893,-0.45502555,1.2554588,-1.044276
0.014415853,-0.08521961,0.261636,2.390809,-0.66796815,-1.3798167,0.4001459,-0.10536021,-0.06284368,-0.2825904,-0.44057453,0.96568036,-0.7124839
0.033050194,-0.053822987,0.30787915,2.3863258,0.07072077,-1.4383242,0.5425136,0.05105537,0.45448303,-0.36805248,0.5252378,1.2457609,-0.62662894
-0.16623262,-0.008893397,0.29094782,0.38063255,0.31901556,1.8451372,-0.7726364,-0.09396458,-0.79983866,-0.29186404,1.0930177,0.4061355,0.81225026
-0.057010032,-0.28450203,0.3228271,-2.8003266,0.25306302,-0.27590442,0.40142357,0.57006717,-0.28726947,-0.79158366,-0.87800264,0.09354119,0.99147356
-0.22699642,-0.07880446,0.22977968,-2.9050667,0.8964231,0.35598654,-0.17053795,0.127846,-0.5854567,-0.8422377,-0.7005502,0.4901571,0.8403636
-0.18519384,-0.20062226,0.37152383,2.9733882,-0.7814653,-0.40651125,0.57826316,0.13499928,0.26930225,-0.9432285,-0.41100883,0.600383,-0.1918562
-0.16850196,0.006435238,0.37818134,2.4973507,0.6961375,0.74891406,-0.55987924,-0.12427062,-0.11856496,-0.56191206,0.11523795,0.70687026,0.7014092
-0.25347418,0.07326772,0.5863818,2.0278406,0.27646983,0.8322954,0.34941208,-0.6473734,0.6608213,-0.91682297,0.77413666,0.10801691,0.7800579
-0.21652588,0.09347999,0.16735053,1.8810314,0.5233616,1.7918724,-1.0141097,0.29719484,-0.7948358,-0.83212316,0.06281793,0.28736898,0.5113133
-0.016945988,0.2247411,0.0066901445,2.1792095,-0.25845346,2.6196814,-0.97018325,-0.5060316,-0.8735086,-1.1722515,1.1223377,0.092030466,-0.7874617
0.0032945424,0.0023971274,0.13513394,2.6654441,-0.14002526,-0.13364197,-0.21036178,-0.2901144,-1.15534,-0.7602245,-0.32685924,1.4779489,-1.0535561
-0.28434303,0.15792006,0.44456792,-0.9034802,-0.40165088,1.7207005,0.07500994,-0.5190996,0.49417746,-0.9369371,-0.9501409,0.537385,-0.9009019
0.11121743,-0.031320482,0.22850884,-2.7080336,0.10814935,-1.6568428,1.0293878,0.5104729,-0.91339964,-0.5252075,0.050655603,0.67100364,-0.5243986
-0.37124297,0.014607266,0.33212593,2.9086642,0.27195436,1.0744317,-0.38094944,0.30996907,-0.11803496,-1.0417938,-0.27185547,0.089086935,0.5384666
-0.039274294,-0.09066466,0.31593898,-2.8562748,-0.77890915,0.033946503,-0.33370286,-0.20859033,0.93044555,-0.2924571,0.31003642,0.8473752,-0.19666028
-0.1705769,0.07016151,0.37463415,-2.1520374,-0.10396364,0.9909228,-0.41321027,-0.3633943,0.40506637,-0.73693305,-0.8296178,0.75929034,0.18155253
0.15145852,0.02189079,0.4323433,-2.2168808,-0.34164548,-1.5045285,0.5635077,0.43639922,-0.52512085,-0.048928738,-0.84160423,0.87081766,1.1333371
-0.04745222,0.18985277,0.47605824,2.934874,0.30849385,1.7549601,-0.9954108,-0.52064633,0.448658,-0.93955505,-0.46174246,0.9816669,0.9038383
-0.2074582,-0.12740481,0.47398108,-2.906353,-0.35664377,-0.10239518,0.7411535,-0.17231393,0.48494887,-1.0944862,-0.59827816,0.893845,0.55288196
-0.012728728,0.34153557,0.36629727,2.009611,-0.17825145,1.7346807,-0.9090404,-0.56044424,-0.12447834,-1.0958867,-0.0472461,0.75856805,1.0547396
-0.04982855,-0.17578351,0.3261266,-2.7388735,-0.10101382,0.70161265,-0.8827245,0.04168892,0.40205956,-0.07341623,-0.57746065,0.32732967,0.61848915
-0.0039343983,-0.14880772,0.36062664,2.8448386,0.5636514,0.045272984,0.18567467,-0.36768216,0.45064092,-0.19372082,1.0105358,0.36404634,0.06445205
-0.16048615,0.058221728,0.14274465,3.0330791,0.20904994,1.1018177,-1.1487532,0.3588904,-0.7044375,-0.827341,0.15809834,0.5254938,-0.6168
-0.42843077,0.012441762,0.40381414,-1.8908929,-0.8870235,1.5298848,0.8759357,-0.689024,0.33686924,-1.2205437,-0.18295044,0.32195106,-0.98203343
-0.19169426,-0.1332446,0.32351252,2.6404397,1.152096,0.61252946,-0.43121058,0.5004182,-0.35036588,-0.59206116,0.14157724,0.28432983,0.73561025
-0.19022138,-0.10470644,0.2072121,1.0035968,1.1273911,2.1221402,-0.5116026,0.68914914,-0.74836886,-0.7429974,0.8777696,0.45163235,0.3154658
-0.2960737,-0.0008109212,0.5499539,-2.3130817,-0.99938554,1.4990501,-0.032148957,0.032822132,0.7610955,-1.0535403,0.00015580654,0.21205452,-0.5649998
-0.0026928186,-0.11396236,0.36418393,2.7837033,0.5005576,0.008735187,-0.5302876,0.05165577,-0.58487993,-0.19225764,0.07750225,0.772033,-0.06752908
0.037432373,-0.116456464,0.3433136,-2.6733725,1.2493178,-0.91443163,-0.04678142,0.43920016,-0.89893365,-0.30718458,0.5759622,0.64991593,-0.18570155
-0.056755275,-0.11586183,0.25800788,1.4640226,-1.1400096,-2.108283,0.37087405,-0.38728687,0.0033540726,-0.24134237,-0.64879227,0.77928525,-1.1219052
-0.23857209,0.1680266,0.11661616,3.0608735,0.29016292,1.6595813,-0.9344959,0.20949358,-0.4588576,-1.0298647,0.7238414,0.11280203,-0.9376853
-0.19692394,-0.052630268,0.29516745,-2.0017538,-0.88927007,1.0479652,-0.2985741,-0.071363926,0.11056709,-0.50515306,-0.58039266,0.36353537,-0.640425
-0.0034193732,0.14740136,0.4829998,-2.421787,-0.18768322,1.0278045,-0.98583096,-0.30017138,0.7894192,-1.0071348,0.0137758255,1.3370302,0.04487157
0.020994604,-0.14773326,0.32208446,2.6197727,0.25843868,-0.30028623,1.0884413,-0.65888697,-0.019545913,-0.43735993,1.0635546,0.67020726,-0.9007096
-0.15518819,-0.095219925,0.16261658,-2.6741252,-0.13834561,0.4895209,-0.13106215,-0.03572291,-0.6940144,-0.5970407,-0.4544844,0.123844534,-0.5416544
-0.23470998,0.13324258,0.5353182,3.033526,-0.47013858,1.3092514,-0.25100112,-0.39458025,0.6049434,-0.9716158,0.3720708,0.16967997,0.07548928
-0.23388137,0.17916442,0.22385128,2.2046309,0.25557336,1.7864449,-1.0966467,0.23138934,-0.51025856,-0.87389314,-0.032052517,0.1763074,0.54726815
-0.1079977,-0.1572586,0.3307647,2.9823997,-1.2594794,-0.30164164,0.23283601,0.03671229,0.34513032,-0.50489295,-0.45658404,0.4196333,-0.49392033
0.0265373,-0.04764278,0.38605204,-2.5973473,0.38505298,-0.98709184,0.23801708,-0.48996174,-0.011898041,-0.23575318,-0.028575778,1.3719194,0.655725
-0.10102941,0.028748859,0.32381132,-1.4316957,0.66898316,1.0628633,-1.0576011,-0.5739748,1.0946606,-0.35339385,-1.101964,0.8759122,0.508652
-0.2072636,-0.1882315,0.3558641,2.263579,-0.57758355,-0.6409949,0.44957936,0.20298481,0.25960314,-1.0203015,0.5020052,0.9027571,-0.99209696
0.055132434,-0.15626077,0.36294478,2.9807947,0.72096795,-0.06481456,-0.6438278,0.4765252,-0.039378285,-0.056860447,0.61724305,0.34091043,0.08321595
0.031347416,0.113201186,-0.05775757,3.023437,0.7650552,1.9045266,-1.0397127,-0.40794456,-1.1123567,-1.1099771,-0.036577106,0.2415767,-1.0471426
-0.08912979,0.23503569,0.3995046,-2.555268,-0.11443214,1.9058093,-0.8914809,-0.5963467,0.369398,-0.86320204,0.31387913,0.5008878,-0.45773
-0.2622073,0.004272133,0.5224548,3.0679076,-0.6529809,0.879439,-0.081329465,-0.12267542,0.6801944,-0.9577998,0.4949696,0.21028654,-0.32709062
-0.036192052,-0.03406923,0.31512254,-2.815447,-0.7889365,-0.32688197,-0.51948524,0.09224224,0.5492759,-0.37516457,-0.16786194,1.2236229,-0.19889808
-0.056324594,-0.026273329,0.3675326,3.0399754,-0.49978432,-0.6394352,-0.6591358,0.50796163,0.57888603,-0.54589057,0.19101512,1.2716202,-0.09323919
-0.17536123,0.0139796585,-0.0029880702,-2.8379946,-1.0200886,-0.7649308,0.33631873,0.03663248,-0.9937999,-1.0566578,-1.1456163,0.6500061,-0.9433632
-0.08083743,0.047103167,0.3023704,1.9583393,0.34177962,1.1041844,-1.0290964,-0.49788612,-0.9867959,-0.49276638,-0.2076453,1.0107338,0.4284072
0.022180848,-0.17108282,0.41216502,-2.8760881,0.5090419,-0.0077104215,0.023984075,-0.3190013,-0.60892177,-0.101801395,-1.1229402,0.4310012,0.9648222
-0.1643363,-0.17401388,0.03429002,0.46063095,0.9789562,-2.7815573,0.22057104,0.6047883,-1.0559024,-0.9049431,0.33100617,0.009685624,1.1544496
-0.037800003,-0.17277901,0.36192068,-3.0870163,0.9582588,-0.04104612,0.11951518,0.013352454,-0.3251195,-0.28220814,0.08713174,0.17259862,0.55015945
0.02029346,-0.30367878,0.44310516,1.7747688,0.24207436,-1.0675703,1.0702828,0.61725235,0.50591516,-1.1618605,0.5820732,0.9725067,-1.1191938
-0.07681548,0.13067406,0.17761293,-2.5821142,0.121108845,0.5966122,-0.411013,-0.6621326,-0.51916116,-0.83017623,-0.76286125,1.0206006,-0.39301282
-0.11239558,0.05320099,0.3486411,2.355185,0.30341148,1.2659322,-0.95474726,-0.5685313,-0.42011523,-0.43465126,-0.19795895,0.7976701,0.5774003
0.08702781,0.014801472,0.3107156,-2.8288054,-0.36028552,-1.6589816,1.0172268,-0.39816314,1.1502429,-0.07748926,0.78971565,1.2299433,0.5553361
-0.23120761,0.0038728714,0.28590754,-1.6787865,-0.59426415,1.4319363,-1.0564396,0.45778382,0.007156849,-0.4826678,-0.6126082,0.1402999,-0.866432
-0.12951878,-0.14404428,0.14558285,-2.882464,-0.056778323,0.115694486,-0.28149527,0.583302,-0.61114156,-0.7303134,0.09848952,0.24576482,-0.73378444
-0.038480274,-0.17461193,0.16270296,-1.1439939,0.6674231,-1.6146716,0.31305754,0.5395869,-1.115934,-0.77170193,-0.2855326,0.6287985,1.005026
-0.1743407,-0.058475763,0.27890065,-2.3383808,-0.36528036,0.36586064,0.1301322,-0.2711612,-0.10576379,-0.69147545,-1.1096586,0.669866,0.23751438
-0.08625278,-0.119138196,0.13658659,-2.8792217,0.43567693,0.013072976,0.117818594,0.11717689,-0.88705254,-0.74350107,0.042405725,0.38161004,-0.45757627
-0.025846347,-0.19450748,0.09938043,3.0932662,-0.86092883,-0.68678224,0.5360042,0.47970247,-0.7709453,-0.68849164,-0.5576195,-0.003167547,-0.8426143
-0.17827529,-0.08190282,0.49128577,-2.85392,-0.35603467,0.296517,0.56432855,-0.38295287,0.61490583,-0.9366118,-0.6184147,0.7512317,0.65519
0.10477884,-0.006460838,0.2854881,2.4335501,-0.37121397,-2.083402,0.8790008,0.61794364,-0.30932683,-0.30194563,-1.1342815,0.7258028,0.09026003
0.012426455,-0.16060887,0.28979495,2.1616738,-1.1422533,-1.1020379,0.088252425,0.20651853,0.6335794,-0.21316409,-0.034539938,0.3282958,-0.6728778
-0.25797433,-0.059520677,0.41286367,2.076252,-0.8865116,-0.6268298,-0.18812418,0.42052698,0.4405167,-1.0925698,0.612926,1.1215456,-0.9990536
-0.00458543,-0.018351372,0.2302569,2.832235,0.13119373,-0.5162851,0.13995087,-0.46652448,-0.9720839,-0.52506566,-0.43434072,1.3820931,-0.58174765
-0.12114127,-0.055598438,0.22112942,2.8238363,0.8063894,-0.019197602,0.27154446,-0.15730822,-0.74587023,-0.8015392,0.37030065,0.9936872,-0.1943044
-0.064662725,0.18547603,0.3841885,-2.2259479,-0.96568155,1.2649335,-1.0927536,-0.115214646,0.4701109,-0.96112907,0.4906305,1.4371551,-0.8452357
-0.09582019,-0.09805136,0.3812396,2.599703,0.42579684,-0.3991472,0.81695163,-0.52528465,0.16729498,-0.65945333,0.8953301,0.9325802,-0.26765084
-0.08599327,-0.11157411,0.25365257,-2.80914,-0.2407121,-0.17668939,-0.050931096,0.12284064,-0.4170248,-0.55156374,-0.6994621,0.61650896,-0.024240613
-0.11158561,-0.13573211,0.40615758,-1.2739766,-1.2951766,1.9460882,0.3828094,-0.4330131,0.9225732,-0.46160144,-0.39822745,0.28631845,-0.36468554
-0.08554729,-0.096709155,0.34939793,-2.5356953,0.19295992,0.04630693,-0.46139657,0.25238395,0.034713984,-0.51612115,-0.8281995,0.8878982,0.80520296
-0.09641274,-0.17750221,0.42488337,-1.3833429,0.92662823,-2.2006598,1.0009698,-0.39056414,0.1918788,-0.5089734,0.92974293,0.58763397,1.0715684
-0.12241852,-0.04044167,0.5683919,-2.878228,-0.45795164,1.3960614,-0.2365709,-0.65922326,1.0455168,-0.6881436,-0.52934223,0.19838953,1.1030973
-0.06412382,-0.027782656,0.5372594,3.0989878,-0.13099955,0.5662684,-0.4133939,-0.40488115,1.1131655,-0.691853,0.4084803,0.75038093,0.7300428
-0.08320443,0.0630593,0.6654988,2.4004514,0.021894753,0.22735046,-0.81566286,0.41710842,1.1025819,-0.99726605,0.82353413,0.5128515,0.7290493
-0.22162253,-0.16447411,0.1001625,3.100847,1.1741097,0.5204445,1.0436603,-0.41995364,-0.7358609,-1.065372,0.739311,0.20679931,-0.068810105
-0.23889923,-0.14252034,0.65217954,2.5312579,1.0631562,-0.3256181,1.0662643,-0.165874,0.7775407,-1.2068734,0.9961418,0.33922175,0.54323864
-0.06587211,0.15849708,0.4092567,2.0356483,0.4905249,1.3262873,-0.8194275,-0.7042953,-0.023834348,-0.68385786,0.00014674664,1.1804029,1.1432184
0.057018436,-0.10889682,0.40957874,-2.0004516,0.9016815,-1.5915188,0.6909498,-0.401335,-0.2728141,-0.11440122,0.38112938,0.65565354,0.7303808
-0.28932142,-0.039194167,0.25609183,0.60850203,0.8084693,2.1444142,-0.048367977,0.10971373,-0.41833502,-0.8079468,1.1275324,0.49224603,0.7563156
-0.14065376,-0.1565966,0.24795136,2.5565372,0.35085535,0.114548124,-0.07250106,0.5829803,-0.39570707,-0.8835309,1.078044,0.8678512,-0.8917749
-0.032341942,-0.19882938,0.49415404,0.6452733,-0.7177221,-2.2954836,0.75773513,0.43314302,0.92063034,-0.7622926,-0.93200797,0.5907091,-0.5443647
-0.033295088,-0.14645302,0.39181566,-2.892188,0.6165574,0.10439416,-0.9955267,0.5884912,0.063164234,-0.23903686,-0.49940938,0.6360519,1.0680524
-0.0071083102,-0.18866447,0.37893066,-2.931497,-1.1944504,0.41077235,-0.18701017,0.33222485,0.56354785,-0.343687,-1.1496472,0.008181724,0.48888433
-0.10452515,-0.22671035,0.44008344,-3.0536957,0.4372396,-1.5188129,0.712808,0.6559626,0.26700222,-1.1203464,0.48714864,1.1477065,0.20108569
-0.29050323,-0.1860185,0.18513688,-3.0338635,0.8968994,0.41367397,0.31140304,0.25647396,-0.52828175,-1.055248,-0.07901907,0.1335043,0.56020594
-0.06595063,-0.112360075,0.3298413,-2.579124,0.45745036,-0.06864264,0.21161902,-0.5001205,-0.37675047,-0.4273113,-0.94401747,0.80285776,0.8217038
-0.09047651,0.011945486,0.37222224,1.3174025,0.4691823,0.95267045,-0.95093125,-0.3191853,-1.1290252,-0.25177836,0.36829984,0.94305456,0.41058505
-0.07563259,-0.14535138,0.37558994,-2.9525094,0.13177462,0.72471267,-0.32600808,-0.53392684,1.0052718,-0.20834482,-0.05193174,0.46497044,1.012261
-0.13221662,-0.14047515,0.1872198,-0.17888846,0.3565289,3.0894098,0.34219503,0.17281532,-0.92547005,-0.6220205,0.98924387,0.6980196,1.0055369
-0.025476914,-0.017931372,0.25028336,1.9903803,0.498317,0.39410967,0.022217989,-0.33279303,-1.0928687,-0.62898827,0.5191356,1.4278234,-0.5260347
-0.31866384,0.047077358,0.3872872,-3.1155024,0.048067268,0.6405443,-0.09613299,-0.0059054494,0.12059939,-1.1316444,-0.19469458,0.61038065,0.28725755
-0.17289713,-0.058666095,0.2411018,-2.6405287,0.39708364,0.0035318942,0.18483758,-0.25797752,-0.47435308,-0.7985995,-0.72913635,0.75416934,0.43490267
-0.14815862,0.093668774,0.23165797,-1.8344964,0.12248212,1.3407185,-0.8764458,-0.63541967,-0.5589202,-0.34008008,-0.9687803,0.18727098,-0.9018669
0.01319804,-0.06911147,0.46611172,-2.4391127,0.8685206,-1.0724658,-0.7103723,-0.0766865,-0.89397305,-0.033857346,-0.68361294,1.4348165,0.9875597
-0.051964857,-0.022922961,0.2480143,-1.6727018,-0.43444312,0.58176804,-0.71918726,-0.6890939,0.7161697,-0.112460256,-0.54216003,1.0923017,-0.39550006
-0.04652691,0.0015658289,0.409167,2.6905944,-0.49297395,-1.1819723,-0.3098151,0.35716534,0.9297854,-0.6324182,0.51997614,1.4982891,-0.089547634
-0.034910865,-0.09872052,0.36141717,-1.442521,0.716406,-2.3830297,-0.08029866,0.5559298,-0.72569764,-0.35014766,0.41190803,1.0823455,0.7498157
0.019473702,-0.10567823,0.23144192,3.065028,-0.49526727,-0.9731021,0.6386781,-0.09546089,-0.6682914,-0.43650138,-0.86262727,0.6674173,-0.3391934
-0.15546265,-0.21812665,0.2487975,2.3730702,-0.72864777,-2.136723,0.89036,0.42739046,-0.118744016,-1.0909398,-0.9458346,1.3395052,-0.43224078
0.079060465,-0.12876546,0.29548216,1.322928,-1.2319604,-2.0053687,1.1390482,-0.6204323,0.9874073,-0.18535411,-0.87493426,0.36854914,0.2026453
-0.106502295,-0.063941814,0.39036825,2.5669475,0.08639617,0.4178502,-0.94453484,0.30519342,0.36982632,-0.42838776,0.97442186,0.6309384,-0.1205281
0.060830973,-0.13066423,0.30609185,-2.8097973,-0.2195168,-0.2185736,-0.66467476,0.45129037,0.87817585,-0.102475405,0.121753335,0.6710806,0.53597295
-0.03866694,-0.13734727,0.5043371,2.0132616,-0.11187277,-1.6850675,0.7970458,0.64332855,0.9531051,-1.0078574,-0.026067615,1.1763772,-0.1666466
0.036604322,-0.255707,0.37743348,1.9141378,-0.0065904846,-1.9148955,1.1087936,0.6948632,0.41070533,-0.99551326,-0.39856178,1.0572914,-0.56879777
-0.089450434,0.18306369,0.029705405,2.3800578,0.12879501,2.0827518,-0.9482502,-0.116927564,-0.9161523,-1.1644391,0.7647114,0.39977828,-0.6643889
-0.3087911,0.025565177,0.27005494,2.9722092,0.2912501,0.9619277,-0.80466515,0.5709106,-0.23110753,-0.9459716,0.043648124,0.25283825,0.08677995
0.011103749,-0.06398373,0.27379602,2.5520139,-0.58399504,-0.55870664,-0.83632433,-0.035895526,0.69485164,-0.18927646,0.9063982,1.464937,-0.6784088
-0.06487453,-0.08394246,0.42873463,-2.4627738,1.1934794,-1.0689998,-0.66095483,0.35819685,0.33837128,-0.28512168,0.67961574,0.9293199,1.1217934
-0.10137524,0.017658412,0.54185545,3.1155667,-0.6165082,1.0807371,-0.8344711,-0.3404876,1.1376263,-0.71419835,0.9735383,0.4373098,0.046530962
-0.10060765,-0.13598646,0.3254442,1.7993888,-0.91971284,-1.3495157,-0.34218413,0.56703913,0.510592,-0.54705954,0.29134893,0.9111256,-1.136079
-0.021635942,-0.11828119,0.2958554,-2.4071107,-0.102032505,0.3713336,-0.7686422,-0.258128,0.2512728,-0.11133456,-0.6409467,0.9108437,0.26861215
-0.0033275113,-0.13836187,0.38821802,2.9083862,0.79503125,0.020001542,-0.27956527,-0.04720795,-0.91619635,-0.13793314,-0.21725154,0.5130398,0.12623906
-0.08876917,-0.03360489,0.2839648,-2.7018952,-0.038005374,0.5626918,-0.62084824,-0.44567472,-0.33065742,-0.36565465,-0.68021846,0.81932205,-0.10455608
0.13113645,-0.063169345,0.33201265,-2.9690032,-0.53043264,-0.90726936,0.69547987,-0.041282773,-0.1564635,-0.18389726,-1.0767137,0.6393502,0.6017884
-0.10185482,-0.0072804242,0.384117,-0.96900135,-0.9029145,1.4345304,-1.063471,0.52096164,1.1351849,-0.5042455,-0.5426649,1.0399337,-0.3757928
-0.15099595,0.000963375,0.31157893,-0.12139596,0.7374392,2.077057,-0.24047267,-0.43690583,-0.78900653,-0.31675392,0.90486395,0.92541724,1.158399
-0.013660267,-0.11100159,0.32216462,2.5626013,-0.29644856,0.16308713,-0.2313413,-0.6185038,-0.6680235,-0.20907557,0.1670183,1.0759182,-0.7863453
-0.13453487,0.010559894,0.38928884,0.927113,0.2525468,1.21685,-1.0104814,-0.5044957,-0.6756835,-0.07903743,0.9294461,0.48081505,0.6579633
0.08101935,-0.10538706,0.38443542,2.7471552,-0.3453557,-1.5922577,0.9649426,0.47185266,0.44029784,-0.5954875,-0.4070748,0.79676485,0.34322155
0.09740512,-0.050541133,0.37834707,-2.7611747,0.16374236,-2.1390724,1.0622236,0.6678045,0.18236268,-0.49442035,0.53365314,0.8388664,0.057513475
0.138515,-0.035685904,0.3358962,-3.089695,-0.20833075,-1.2117637,0.82144606,-0.009233475,0.75007117,-0.15315807,0.18835163,0.60226357,0.5022322
-0.06291628,-0.06760963,0.30853826,2.9004612,0.23424335,0.3731533,-0.6818019,-0.2268947,-0.74157387,-0.34367537,-0.3200202,0.8769421,-0.12531495
-0.13972,-0.021670982,0.6433295,2.3220038,0.6787241,0.23339687,-0.1735332,0.16586775,1.0324484,-0.82078063,0.8459078,0.22124088,1.014774
-0.12838602,0.012028888,0.20684925,-2.4413502,-0.02856052,1.088057,-0.9369974,-0.44085553,-0.86246204,-0.37983286,-0.88697445,0.43950525,-0.7193634
-0.013882861,-0.15173404,0.5214761,2.742444,0.33009708,-0.25659856,-0.01523304,0.5127351,1.0204004,-0.56993246,0.85888493,0.08804709,0.34184504
0.0005515516,-0.11388269,0.3038508,-2.9262815,-0.13981827,-0.42849055,0.5942713,-0.5269908,-0.36988306,-0.34808362,-0.5975348,0.6967552,0.07526147
0.06576749,-0.16195795,0.36401907,2.4747422,-0.6206017,-1.6034931,0.8662292,0.6468917,0.33423615,-0.7178251,-0.8686018,0.79405165,0.31420958
-0.13213451,0.12279557,0.53666055,2.326866,-0.44387338,0.0013962777,-0.5860678,0.1037243,0.70043814,-1.0860368,1.0541817,1.0654858,-0.07082188
-0.13152233,-0.13447227,0.23088636,-3.0497255,0.93098223,0.33572328,-0.29234248,0.22988182,-0.8768301,-0.5779693,-0.51486355,0.23940264,0.5141355
-0.1145906,-0.18032978,0.3579154,1.7670372,-0.5131332,-2.4465618,0.6839305,0.5779202,0.3837694,-0.8711673,-0.85486305,1.4436537,-0.5293345
-0.09609481,-0.21795788,0.25662073,2.6534464,-0.0971627,-1.6597399,1.1345516,0.22317898,-0.10587096,-1.0580251,-0.1585648,1.2933484,-0.5417865
-0.0038058832,-0.15514807,0.34927905,-0.654157,0.87431264,-2.6475918,0.705361,-0.32703292,-1.0345373,-0.21834433,0.42413974,0.4402423,0.677618
0.19790041,-0.02000652,0.3171766,1.9934889,-0.462077,-1.2627478,0.8332794,0.28597635,0.930657,-0.14135897,-1.0052185,0.011553636,0.7379044
-0.17732129,0.22098231,0.21403193,2.5505993,0.15124549,2.0610962,-1.0693244,-0.13619125,-0.5353833,-0.8221843,-0.3539784,0.030645046,0.44296598
-0.14002517,-0.14735952,0.64783,2.5522873,0.59107625,-0.47804704,0.6407968,0.34619868,0.8878106,-1.1103414,0.71871996,0.3467425,0.34834707
-0.24367552,0.017283201,0.24658576,2.8602898,1.3059692,0.24689654,-0.026541114,-0.0430457,-0.5729743,-0.98438,0.03867817,1.0124524,0.7225677
0.0009532273,-0.07538455,0.31726632,3.1289048,0.29156893,-0.32109302,-0.5106038,-0.0059593916,-1.0001806,-0.29848224,-0.704451,1.0433142,-0.0819875
-0.14007494,0.069169305,0.7240289,2.236555,0.41973007,-0.057135295,0.08758354,0.11768061,1.1327883,-1.178943,0.8071345,0.39043102,0.79184926
0.023397475,0.009489119,0.2522592,2.1422896,-0.3104533,-2.4797428,0.8924805,-0.084058404,0.9505297,-0.11947811,0.042675972,1.4502794,-0.34379536
-0.05506865,0.010685772,0.41036612,2.1393692,0.4249022,0.6479256,-1.0576897,-0.57388186,0.3835994,-0.2427873,0.95443785,1.165976,0.7917415
-0.15283413,-0.06969701,0.48947242,3.0359433,-1.1850122,0.28624797,-0.15764725,0.0020900369,0.9630908,-0.7738793,0.48209202,0.5389606,-0.57430446
-0.15499738,-0.096063934,0.5174036,2.7905,0.38992688,0.44268793,0.59532547,-0.70244896,0.5604212,-0.6305569,-0.085238695,0.2891117,1.1093587
-0.052334122,-0.03688281,0.40241763,2.1368885,-0.31051105,-1.4437597,0.19537544,0.088508904,0.95981777,-0.6635458,0.6977953,1.4334925,-0.48964947
0.056256264,-0.15646994,0.23226812,2.205028,-0.85997564,-1.2316617,0.011005998,0.69025004,-0.691537,-0.24008858,-0.7144488,0.15570849,-1.1557411
-0.121889494,-0.12623955,0.2924277,-2.4474099,-1.1415073,0.19800493,0.1767075,0.05556345,0.049378157,-0.5662664,-1.1454022,0.5849984,-0.06795764
-0.06918776,-0.029133745,0.27776915,1.7079071,-1.0520729,-2.2378678,-0.59626126,0.2018277,0.8654436,-0.28342992,-0.011077523,1.4467907,-1.0334057
0.097177826,0.033876494,0.2949662,2.2338955,1.0116719,-1.3205854,0.72995806,0.31976235,0.37254965,-0.2135135,1.1381832,1.4568539,-1.0990082
-0.011913866,-0.13063878,0.3376798,-2.8976402,0.102072306,-0.6687034,0.9454173,-0.5029457,-0.12260103,-0.47551602,-0.24210936,0.7016111,0.29685438
-0.18852264,-0.07562289,0.36862177,-2.7737763,-0.35605648,0.9947709,-0.20848107,-0.31605378,0.26809168,-0.46526408,-0.31782842,0.07905397,0.06433284
-0.1088276,-0.06988552,0.42454785,-2.1791873,1.2570996,-1.5178889,-0.7297094,0.6225114,0.14124203,-0.40870428,0.7423583,0.949899,1.0262858
-0.08376838,-0.06857641,0.39784655,1.3728557,0.8250103,1.1445173,-0.49170727,-0.2982654,-0.9805312,-0.16386259,0.51841116,0.70506877,0.25060368
-0.35564998,0.10030924,0.38927945,2.136789,0.40984374,0.84270597,0.54518175,-0.6252484,0.012582064,-1.1994656,0.7986233,0.5826139,0.30477762
-0.17568997,0.13634424,0.23795159,-2.50742,-0.7400399,0.030083593,-0.64718294,0.19554377,-0.122317314,-0.91676265,-0.6837985,1.3245199,-0.7009373
-0.060693547,0.23372515,0.43545663,2.784859,0.45827776,1.5799366,-0.8523871,-0.45854402,0.24103618,-1.0610472,-0.4926166,1.1263725,0.88260233
0.044882685,-0.11278998,0.24106774,-2.8897324,0.7821564,-0.6135848,0.42676997,0.117853284,-1.0454634,-0.5162139,0.3239671,0.6509993,-0.5323139
-0.0074930936,-0.0182449,0.3858212,-0.91870475,0.80900013,2.8496804,0.6271918,-0.09231317,-0.9630025,-0.15829432,0.9856001,1.3971698,0.24327195
-0.09547795,-0.025129147,0.4963716,3.022411,0.33281973,-0.46717116,0.18271935,-0.22473127,0.6831523,-0.7145172,0.60300493,1.0332344,0.59575367
0.057662435,-0.078211874,0.2515581,2.8050501,-0.82551944,-0.9834521,-0.8509893,0.3802631,0.23300123,-0.03018272,-0.20716494,1.1994903,-0.6239634
-0.26128978,0.14095438,0.35498506,-0.9820055,-0.40751782,1.6437062,-0.4506474,-0.22886345,0.23462188,-0.7050838,-0.8552163,0.3605316,-1.0789905
-0.0026661903,-0.044947453,0.451195,-2.8578598,0.04949229,-1.6826192,0.6202855,0.2049197,0.7232598,-0.53811866,0.61748767,1.2521255,0.6160517
-0.023580879,0.18260838,0.5878693,2.821954,-0.5721468,1.6607076,-0.9980773,-0.6013087,0.76003134,-0.8892796,0.51287377,0.40138417,0.6884284
-0.067058966,-0.22259,0.24263802,2.2740998,0.42588958,-0.6147074,0.7649609,0.47922468,-0.28334457,-1.0703738,0.9507617,1.332542,-1.1367627
-0.11830517,-0.061057374,0.2819229,1.807357,0.89016134,1.0304353,0.27670133,-0.58382785,-0.8130968,-0.5462046,0.7102835,0.74330825,-0.033523798
-0.0110194795,-0.05922495,0.3842422,-1.4367263,0.39419618,-2.8092346,0.70414066,-0.05925238,-0.36984092,-0.20325696,1.0394586,1.2772392,0.76134443
-0.19334249,0.20628683,0.62646925,-2.4676552,-0.56675345,1.9145601,-0.17470789,-0.4696607,0.813853,-1.2077883,-0.1271329,0.1840357,0.023724198
-0.15692744,-0.047792394,0.123279564,-1.754049,0.50402385,-1.2072791,0.9179014,-0.3607361,-0.9878857,-1.1551913,-0.56351453,1.2251005,0.5675466
-0.29262143,0.0009166226,0.3897081,2.1505942,0.8184604,0.6226287,-0.35308206,0.36065733,-0.007943273,-0.9565587,0.81794333,0.6636675,0.43212628
-0.026428998,-0.17628849,0.21273494,2.978566,0.21476866,-0.024551572,0.015146136,0.46085644,-0.5330495,-0.62039965,0.9078127,0.47843176,-1.1513994
-0.107974395,-0.054465964,0.09234728,2.4756203,0.47474986,1.4181852,-0.03530562,-0.42815962,-1.1369566,-0.8666259,1.0520328,0.5338695,-1.1282744
0.00020556152,-0.10372839,0.43803674,2.6994102,0.2228545,-1.2057586,0.7776964,0.09992468,0.69639945,-0.65408087,0.7211509,0.9022946,-0.110384345
-0.04527802,-0.046803847,0.28322628,1.4258333,-0.61658716,-2.9365282,0.8303665,-0.63664687,0.5830803,-0.19318438,-0.8357023,1.4090713,-0.9391374
0.06357675,-0.072811574,0.44186407,-2.180267,0.7764157,-1.6468086,-0.32505804,0.5220146,-0.7568494,-0.059004426,-0.091046095,0.910851,0.61160326
-0.04329452,0.023319032,0.4510807,3.0204034,0.22659427,-0.7215098,0.035510182,-0.37524644,0.76292086,-0.5897482,0.8736521,1.4285176,0.46353316
-0.29017374,-0.08008527,0.36291382,1.1202431,1.2218632,1.599804,-0.08355391,0.29531944,-0.07901406,-0.8393885,1.0387801,0.51219815,0.6834363
-0.10719607,-0.053102165,0.15845272,2.4998646,0.81133986,-0.052452262,1.1506816,-0.4801634,-0.9241288,-1.0388186,0.8438009,1.4462175,-0.6616683
-0.15119953,-0.047807675,0.14158712,2.6997154,-0.38205996,-1.0036416,0.4493897,-0.017389655,-0.5513441,-0.91670156,-0.2971325,1.308053,-1.0030004
-0.27488285,0.020429999,0.32984352,0.94297355,1.3483865,1.2712405,-0.5178454,0.6594621,-0.24424934,-0.93369544,1.1392323,1.1611881,0.67282724
-0.10420875,0.2740561,0.35791564,2.6659122,-0.476235,2.01926,-1.0861874,-0.39107108,0.05800426,-0.844315,0.8270401,0.17882076,-0.1339767
-0.22153622,-0.012357354,0.3149768,2.7830598,-0.27940243,0.64215237,-0.3711744,0.004947424,-0.018093467,-0.7955036,0.8199254,0.64724475,-0.72264725
0.047860168,-0.10949409,0.35052243,-2.3403926,-0.052225787,-0.0847061,-0.51586235,0.2583294,1.1354545,-0.26084435,-0.07710183,1.1285341,1.0736746
-0.11720142,0.079855174,0.5363394,-2.7234588,0.20233405,1.1751182,-0.37099135,-0.4328671,0.83374095,-0.9907107,-0.66756904,1.0463835,0.9466249
-0.15960929,0.205446,0.2569543,-1.6566039,-0.25178456,0.8213163,-0.89721256,0.0035654306,-0.049730062,-0.8477416,-1.0941767,0.8197711,-0.5980599
-0.22933385,0.10118186,0.26627088,-2.7929718,0.19841595,1.388365,-0.630624,-0.26293263,-0.28524828,-0.7100186,-0.7181141,0.1328531,0.1564945
-0.039044827,-0.0010967478,0.36472362,1.5669906,1.1258049,0.45774117,-1.0263901,0.4079473,-0.96115667,-0.28512174,0.48086667,1.3736517,0.3374064
-0.028440319,-0.07669783,0.4134711,-1.8981427,0.7335069,-2.0521536,0.38288653,-0.09380072,0.1351434,-0.2914921,0.8790084,1.1183667,0.91357005
-0.113806576,-0.11060434,0.2290792,2.8701322,0.30128795,-0.32574162,0.13049614,0.28716093,-0.47981328,-0.81317776,0.43495822,0.9538671,-0.5759081
-0.12939382,-0.2004132,0.21606849,-1.0481809,0.5063272,-2.1938841,0.586234,0.38708317,-0.77177167,-0.87581956,0.36469853,1.0399636,1.0431741
-0.3820556,0.12510474,0.17749324,-1.3306973,-0.6702944,1.2109385,-0.2988026,0.22936273,-0.3003875,-1.1347687,-1.0659856,0.29225415,-0.9235482
0.0912586,-0.13507253,0.36097267,2.215912,-0.70196915,-1.0508547,0.5347326,0.1978584,1.075261,-0.31092423,0.08990884,0.25592288,-0.10414505
-0.12054595,-0.11281348,0.21439253,0.89430314,0.9795931,2.3123028,0.35920465,-0.46004274,-1.0640852,-0.5432417,0.7059332,0.3276102,0.2425977
-0.17350104,0.04663232,0.39324158,2.7258804,0.027228933,0.99470395,-0.6666709,-0.26104456,0.18255556,-0.5981695,0.38426661,0.49560344,0.21054387
-0.14933372,0.18889186,0.5167838,2.3873248,-0.08282702,1.1106552,-0.972137,-0.026935995,0.43561888,-0.90333354,0.43376422,0.54426336,0.7313849
-0.11956315,0.16169825,0.18852161,2.0934994,-0.042465005,0.8319699,-0.80558264,0.17535466,-0.7036551,-1.1277199,0.8403901,1.3397418,-0.28566206
-0.04693445,-0.12649289,0.60374135,2.9060156,0.0852922,-0.34918135,0.46169865,0.28026128,0.9003445,-0.87651825,-0.29693687,0.45810986,1.0886344
-0.24755305,-0.013012931,0.48295093,2.5354085,-0.20273376,0.41346797,0.38457024,-0.4890104,0.48190594,-0.9625735,0.9051393,0.49547744,-0.2688138
-0.094544314,-0.18584234,0.38785693,-2.9279633,-0.18681766,-0.13114272,0.9338409,-0.43208915,0.17819417,-0.69232255,-0.7032107,0.4692063,0.6639544
0.11117707,-0.020202171,0.3687924,-1.4666209,0.18894643,-2.0910559,1.1024271,0.47526228,-0.85311145,-0.25089413,0.8517579,0.69088763,-0.015814662
-0.17577541,-0.078239195,0.020105444,-2.5269647,-0.17961325,0.29261872,0.5469173,-0.2229107,-0.7947235,-0.9513767,0.14993882,0.1290851,-1.1114956
-0.025886165,-0.052335527,0.3896037,-1.6708732,0.79740924,-2.4392967,0.46284664,-0.24869749,-0.9145614,-0.23916215,0.21553075,1.3137666,0.6978071
0.14404625,-0.10182351,0.3043053,1.9182568,-0.7690013,-1.3428441,0.46457386,0.3718555,0.2706653,-0.08798492,-0.77960587,0.048079845,-0.27421343
0.0110645965,0.21713872,0.6225033,-1.8283802,0.61178076,2.478243,-1.0949336,-0.63040876,0.9872507,-0.9849606,-0.345367,0.03711464,-0.22561353
0.12582397,-0.04917161,0.35224286,2.3621876,0.3590444,-0.75029176,0.011951804,0.28108644,-0.97073734,-0.09394336,-0.037768245,1.1162553,-1.0339408
-0.025033206,0.22025433,0.19852191,2.7424183,0.3411448,2.056099,-1.0577891,-0.6548618,-0.5190338,-0.895327,-0.60318005,0.55322534,0.22452438
-0.0959426,0.09991844,0.18195793,1.602479,0.6867915,1.0375593,-0.6600863,0.08428037,-1.0261624,-0.93707037,0.50890124,1.3067573,0.21020293
0.020593002,-0.13647269,0.38772318,-3.0641875,-0.06729834,-0.16860473,-0.6289957,0.53100467,0.98808825,-0.2785024,0.34702384,0.52752393,0.6008098
-0.26061273,0.091243446,0.17377058,2.881895,0.40304554,1.2303286,-0.17748499,-0.3054191,-0.5034271,-0.9700402,0.13899064,0.285602,-0.13832355
-0.11085327,-0.06575342,0.5058907,-2.8525925,-0.18879761,-0.6207924,1.0914856,-0.5693047,0.6832924,-0.93731976,-0.19445801,1.2604451,0.77121913
-0.04790376,0.031107664,0.23147342,-2.986507,-0.86940867,-0.053753342,-0.75364995,-0.3098927,-0.3481173,-0.43915713,-0.50383335,1.4880581,-0.9955281
-0.29012913,-0.013694689,0.6344377,-0.8538333,-0.6784774,2.6784735,0.96162474,-0.62138003,0.96850216,-1.1467259,-0.65543807,0.35570478,-0.9091421
-0.24504775,-0.05342572,0.38193718,-2.8758593,0.586778,-1.1366465,-0.04944575,0.6124252,-0.0028041601,-1.0905495,0.38389373,1.4872919,0.48626244
-0.08001129,-0.074448146,0.424076,-2.490054,0.10587556,-1.016536,0.81233895,-0.38598645,0.25481784,-0.676724,-0.097536325,1.3476902,0.84313595
-0.13232647,-0.06269984,0.17118372,-2.6360726,-0.37534472,0.09486084,0.14530897,-0.2858125,-0.6552654,-0.6552074,-0.8300099,0.5421213,-0.3877198
-0.25239712,-0.09315107,0.2766323,0.03720773,1.1780665,2.5700514,0.5268153,-0.15057105,-0.44439566,-0.8480537,1.0452613,0.8347599,0.6839907
-0.10928641,-0.041919433,0.21574137,-1.8257561,0.7978833,-1.4324018,-0.055522442,0.20473778,-0.98185825,-0.8312271,-0.4938894,1.281519,0.6792828
-0.07747196,-0.22853363,0.16074559,-2.846241,0.3267623,0.024905577,0.9630507,-0.23373863,-0.42457032,-0.7997023,1.0458342,-0.0034539101,-1.0313351
-0.18984258,-0.17922938,0.19295506,-2.4871762,-0.67644423,-0.42861253,0.7105634,0.13505298,-0.35325223,-1.0826323,-1.09585,0.8060079,0.1792382
-0.22089866,0.0002747029,0.43003497,3.0918016,0.2891763,-0.27507126,-0.5378131,0.6433513,0.23149753,-1.0138654,0.17443824,1.1466506,0.42482567
-0.23203462,-0.083089165,0.35713822,-2.9388418,0.49338672,-1.0166789,0.9936656,-0.3651641,-0.060285807,-1.0919931,0.2810483,1.3860198,0.33530915
-0.18863022,-0.02516137,0.6790011,2.7423728,-0.109390184,0.35181093,0.14934444,0.17105973,0.89344084,-1.1947314,-0.48712522,0.4690677,1.138148
-0.13832799,0.030974478,0.6109467,-2.4195478,-0.65513515,1.6098001,-0.54971445,-0.06855893,1.0417174,-0.9436294,-0.47630584,0.28086668,0.49751103
-0.12659018,0.029356137,0.44904974,-2.1556172,-0.6279943,0.81029385,-0.28501332,-0.22635153,0.84968746,-0.8007778,-0.41151088,1.0065787,0.0603863
0.060837492,-0.124906644,0.35584897,-1.0060781,0.5068637,-2.3062332,0.60810614,0.27487814,-0.96514773,-0.2324022,0.5757228,0.5744486,0.57408595
0.06631306,-0.06537551,0.31492975,-2.8044271,-0.63106126,-0.7260931,0.87635005,-0.66957515,0.2811625,-0.23080707,-0.6005299,1.0151231,0.36835265
-0.13590984,-0.08428396,0.2619124,1.5750751,0.6917235,1.6382962,-0.9716498,0.33331466,-1.0486025,-0.4325378,0.6140201,0.30192515,-0.049140096
-0.22557546,0.13057773,0.3322389,3.029693,0.43374407,0.40884724,-0.006626725,-0.38723677,-0.11016905,-1.0989211,-0.073304534,1.1168538,0.36462414
-0.049200848,-0.14885679,0.34223795,2.5978274,1.0137714,0.49518266,0.054696918,-0.2756478,-0.6972238,-0.2536198,0.34933197,0.31615415,0.0634135
-0.16074076,-0.143718,0.30166593,-3.0247927,0.10466644,0.4692398,-0.60568213,0.5539317,-0.2714963,-0.52940816,-0.41055208,0.09309529,0.20179594
-0.14559996,-0.10069591,0.1790341,2.2061,-0.8725275,-1.5470641,0.6918113,-0.29108846,-0.37778825,-0.6842885,-0.6859969,0.9975733,-1.1293426
-0.20418844,-0.18576634,0.4173475,2.885659,0.9025189,0.34758595,0.24962091,0.11108643,0.0020394325,-0.68619794,-0.1908437,0.11488378,1.1191503
-0.16373126,-0.033981748,0.28574982,3.1121054,0.38178545,0.20905645,0.24311483,-0.5178512,-0.3375392,-0.7095558,-0.103906274,0.77238226,0.117173314
0.042999372,-0.12452696,0.32350656,-2.7656147,-0.2529887,-1.0112493,0.37060046,0.50475454,-0.20380825,-0.5009783,-0.66937935,0.75646055,0.50780153
-0.27085286,-0.08944669,0.45959097,2.8773115,-0.29208717,0.39696005,-0.22533005,0.3975643,0.42234612,-0.96700716,0.3450563,0.32417527,-0.14236093
0.15015058,-0.09147663,0.36899397,2.4508793,-0.4877426,-0.9969256,0.33867323,0.67569363,0.709869,-0.2796287,-0.6187427,0.14311779,0.4922731
0.05358208,-0.16870905,0.3969742,2.33738,0.52065104,0.5082812,0.3098637,-0.6107916,-0.80822515,-0.07991207,1.0013305,0.5538415,-1.0128996
-0.23087518,0.18833649,0.2881627,-1.7701601,-0.5298831,1.2830218,-1.1155673,0.36327016,0.11228204,-0.88798594,-0.33316934,0.68962604,-1.0239241
-0.01019863,0.20845181,0.31260127,-2.6866722,0.7403714,0.7359353,-1.0255152,-0.2421295,-0.05566275,-1.0281527,-0.8501575,1.4740239,0.26258183
-0.18119594,0.087693036,0.03646917,1.1640879,0.14981781,2.289458,-0.7021272,0.2765355,-1.0775735,-1.0046219,0.95872104,0.24634123,0.3529383
-0.28475887,0.0770264,0.35770434,2.982387,-0.022906115,0.6248207,-0.4837981,0.22939795,0.05483532,-1.0773768,0.18945539,0.7018886,-0.018822432
-0.071045145,-0.10122359,0.18840532,3.0273998,0.20521845,0.54443324,-0.047738194,-0.5017543,-1.0621545,-0.5171777,-0.038381696,0.519663,-0.7945359
0.075328216,-0.009361267,0.27934492,2.5671368,0.5226128,-1.467836,0.774434,0.07030851,-0.5300617,-0.29743093,0.050727487,1.3177655,-0.9174526
-0.24516147,-0.0072419867,0.053764015,0.61747223,0.9420485,2.7704344,0.65580845,-0.36921626,-1.0630144,-1.1432939,0.44261837,0.6593403,0.82934415
-0.20860763,0.15240437,0.31898955,1.3553376,0.71119726,1.2856417,-0.89812875,0.1806454,-0.3548301,-0.79368436,0.62898314,0.86436546,0.91770995
-0.0447435,-0.1286725,0.20711988,2.9831872,-0.55494654,-0.14046237,-0.3452794,0.2924453,-0.622391,-0.42025465,-0.055929303,0.6097903,-1.1356863
-0.19213201,-0.06743811,0.5014685,2.8292634,0.15410897,-0.61056894,1.0046874,-0.50670636,0.529323,-1.0579408,0.42819953,1.046183,0.28003538
-0.20790239,0.086912185,0.2557252,-1.3090386,-0.7612248,1.1927122,-0.37917554,-0.32125044,-0.11227739,-0.59434026,-1.0705758,0.6053929,-0.93503916
-0.13726798,0.21765102,0.32752383,-2.6838233,0.059460897,0.96379966,-0.6496237,-0.27556852,0.078335166,-1.057694,-0.3665995,1.0068424,-0.07147002
-0.08425337,-0.053983904,0.3551965,-2.902381,0.17784867,0.42041093,-0.3006301,-0.5555258,0.17480695,-0.39135903,-0.28186715,0.8756492,0.4092896
-0.045075037,-0.1724105,0.3016547,1.4169235,-1.3868486,-1.7260929,0.4668454,-0.31640378,0.73698926,-0.24007255,0.06864917,0.26650286,-0.92837375
0.06692012,0.08567028,0.5741094,-2.304546,0.5587662,1.7381735,-1.1219288,-0.5815486,1.1544625,-1.1662761,-0.48433524,1.2609113,0.4257114
-0.0122570805,-0.16090064,0.28502452,0.05107031,-1.2386569,3.0255558,-0.28872848,0.23827422,0.47399414,-0.06358898,-0.752101,0.20171364,-0.68626046
-0.15099666,0.0074044466,0.62463546,2.2184217,-0.51251787,-0.3678941,0.7503642,-0.5015719,1.0321532,-1.1908613,0.6950023,0.7557742,-0.13726902
-0.22498038,-0.033134505,0.42193013,-2.3784006,-0.13021314,0.33315933,0.2734114,-0.14388669,0.39420688,-1.0417483,-0.9711316,1.0944432,0.6773987
-0.13055581,-0.040145278,0.17959596,-2.5557365,-0.22494054,0.5287038,-0.10595691,-0.50912297,-0.7723684,-0.53093475,-0.8594707,0.4206415,-0.5041166
-0.018445376,-0.19034505,0.39821005,-3.095473,0.14799389,0.3306537,-0.5984895,0.4684806,-0.20928705,-0.23559642,-1.13265,0.05377259,1.051922
0.09270618,-0.07795966,0.27434242,-3.1143465,-0.92726654,-0.7737957,0.19558692,0.05076176,0.6441374,-0.118133664,-0.47455698,0.77805316,0.258139
0.032026604,-0.11344416,0.4124196,1.6056097,-0.3470183,0.265587,-0.51105803,-0.43054742,-0.6623661,-0.06678784,1.0934469,1.4336077,-0.9367829
-0.11923832,-0.13517481,0.36123255,0.6775377,0.82039505,2.344102,-0.18715149,-0.26915774,-0.6957997,-0.083630204,0.45577633,0.025727257,0.98092806
0.01856345,-0.050627492,0.32957706,2.7392635,-0.15009561,-0.74301213,-0.13938534,-0.17120004,0.6963694,-0.2909149,0.82440925,1.2598746,-0.24923038
0.11301099,-0.078877084,0.24278273,2.5663095,-0.44529834,-1.1674534,1.1424466,-0.66389483,0.9081708,-0.064350486,0.6057898,0.57562935,-0.42146772
-0.14988576,-0.10490634,0.46883982,2.9816036,0.903923,-0.14213054,0.53162515,-0.42259714,0.36664903,-0.61927336,0.4799863,0.55568165,0.8465501
-0.15412281,-0.0040837154,0.22915722,-2.4427023,-0.010795359,1.3080764,-0.9536465,-0.45040992,-0.8689345,-0.26906717,-0.6673597,0.22008176,-0.90677655
-0.072418265,0.11303606,0.39161074,-2.000857,-0.91251445,0.8411552,-0.5072467,-0.5793768,0.7744831,-0.7454921,0.09936178,1.4123846,-0.6793177
-0.20291778,0.00091816485,0.35303015,1.8143789,1.0890571,1.3002216,-0.5562873,-0.015187144,-0.35537732,-0.5643611,0.020040154,0.6842131,1.0898796
-0.13564986,-0.045800358,0.40098238,2.6463692,0.2263839,0.68538415,-0.98288,0.21113437,0.31746447,-0.4180022,0.5773392,0.4876973,0.29216027
-0.097533986,-0.13274951,0.37640458,-3.1189165,-0.06430671,0.6059357,-0.060471177,-0.4952354,0.44407356,-0.28069705,-0.02111125,0.22886914,0.3982911
-0.1943554,0.025531493,0.50297606,1.9421593,0.6249496,0.8379198,-0.63435686,0.07684076,0.591174,-0.61589056,1.0298804,0.34831202,0.838776
-0.21964327,0.119052395,0.66319263,-0.8013038,-0.22505735,2.4713361,-0.83626175,0.6943319,1.1222118,-1.1494956,-0.570208,0.49337703,-1.0627122
-0.17012541,0.012866717,0.5069328,-2.6701307,-0.92364055,-0.108230375,0.6727953,-0.2993742,0.857278,-1.13674,-0.5677514,1.4439998,0.21982706
-0.0066239387,-0.21730368,0.36472094,2.631734,-0.81863225,-0.6808331,1.1150199,-0.22747529,0.27515137,-0.5879821,-0.70100707,0.21484049,0.008306503
-0.09935492,-0.22584584,0.44585302,2.6932497,0.1022033,-1.7617232,1.1446737,0.416721,0.45623922,-1.2216123,0.1070925,1.422098,-0.028402567
0.07908988,-0.008747071,0.3905647,-2.0455172,-0.05676392,-1.9873357,1.0023354,-0.5194344,0.36077678,-0.045472622,0.70639026,1.3842,1.0148839
-0.030591905,-0.09856719,0.36547187,2.2809045,-0.4702727,0.38612956,-1.1082981,-0.34368432,-0.48769993,-0.12453568,0.5707089,1.2745974,-0.5403366
-0.26814038,0.065399505,0.3046623,2.579605,0.35846788,1.494272,0.010486722,-0.69844455,-0.38155395,-0.7098828,-0.54946566,0.053048864,0.8509947
-0.043560766,-0.08058388,0.27937183,3.0177038,-0.095836826,0.1365406,-0.021674752,-0.6863272,-0.6983619,-0.34302264,-0.31095123,0.9046388,-0.47324252
-0.09014883,0.08352545,0.048815276,2.762825,0.37803736,1.7445787,-1.087016,-0.10625571,-1.0085915,-0.9181973,0.26066327,0.36498785,-0.8003088
-0.14710481,-0.060733642,0.26583084,0.14930342,-1.3618848,2.7079859,-0.12105489,-0.16978449,-0.017770052,-0.36861318,-0.8969687,0.77022684,-1.1058357
-0.07842082,-0.09933992,0.3600302,2.521993,-0.3508934,-0.9409122,0.37148905,0.03165114,0.4237889,-0.6594425,0.33630645,1.0690434,-0.4651996
-0.015007131,-0.10345722,0.3138495,-2.6766205,-0.757276,-0.53027725,0.48196948,-0.007949829,0.083444834,-0.49888027,-1.0104345,0.95423675,0.42358744
-0.05702559,-0.23078683,0.33997938,1.8175383,-0.9657574,-1.8176535,0.9650465,0.1930899,0.2682507,-0.78529805,-0.99386847,0.6860812,-0.26664037
-0.04256919,-0.13909791,0.48880363,2.2927377,-0.17112765,-1.37242,0.6895746,0.48405087,0.83011866,-0.9307812,0.15158641,1.0020217,-0.114617705
-0.09058427,-0.08163728,0.27264005,-1.5531862,-1.1802776,1.1619947,-0.16121149,-0.4986876,1.0567037,-0.19357204,0.009480238,0.6908656,-0.5881057
-0.16990083,-0.12456618,0.3979426,3.0428092,0.11530578,0.11741968,0.2878505,-0.15776467,0.20756805,-0.7008324,0.075855136,0.44297937,0.25876153
-0.11013323,-0.08847669,0.23732154,1.9784545,1.3632396,0.9707488,0.3476056,-0.2971072,-0.94433755,-0.64503914,0.45441246,0.7317686,0.16670811
0.03949012,-0.115368396,0.41278556,2.085703,-0.23044318,-1.4340069,0.82147586,0.19505435,0.93645465,-0.60173696,0.33082056,0.7968591,-0.38860208
0.08102186,-0.122045726,0.2974376,2.689352,-0.04624038,-0.53047895,0.2740624,-0.16719604,0.6603651,-0.16029394,1.1445228,0.63199353,-0.6284256
-0.19971253,0.019709662,0.69444895,2.1655533,0.34974205,0.36636493,-0.06767583,0.22684169,0.9556128,-1.0607893,0.54613817,0.10485119,0.8983494
-0.032819822,-0.38672054,0.42594925,2.0611296,-0.8955849,-1.1583134,1.0757853,0.5710939,0.32581818,-1.1927751,-0.99146116,0.3153237,-0.13447225
-0.06954315,-0.13475218,0.4151957,-2.586606,0.44408405,-0.39943036,-0.11629856,0.32714653,0.19431233,-0.55903727,-0.42218626,0.8427776,1.1058985
0.07694268,-0.0063934475,0.3254065,2.771967,-0.15228245,-1.5211195,0.7925073,-0.5824194,-0.7117986,-0.099086165,-0.8208889,1.3279904,-0.4160409
-0.16176534,-0.026460454,0.34548798,-2.9306355,-0.83664346,-0.8419899,-0.208224,0.55453634,0.2453531,-0.83555645,-0.6371744,1.4491814,-0.0934211
-0.30048868,0.14354937,0.3445574,1.689556,0.6955399,0.96332175,0.23734927,-0.49286604,-0.17046362,-1.0810633,0.8846742,0.8383553,0.6041472
-0.0015699416,-0.12964657,0.23484565,-2.4739628,0.42251307,-0.65827805,-0.22598076,0.56767726,-1.0319523,-0.5434156,-0.7875395,0.56284136,0.32946408
-0.17731786,-0.11006714,0.18340465,-2.82423,-0.08628391,0.038060725,-0.18227595,0.402956,-0.5012719,-0.8175225,-0.34785175,0.4654472,-0.27443725
0.11506796,-0.037559886,0.3447535,2.5391085,0.5045441,-0.84924316,0.1289897,0.2667036,-0.989303,-0.14839864,-0.030988812,1.1177834,-0.9019704
