x,y,z,R,P,Y,t1,t2,t3,t4,t5,t6,t7
-0.09865934,-0.124019146,0.22040412,1.4822404,-0.93595093,-2.2849944,1.2590568,-0.94221413,-0.42172694,-0.42944562,-1.1564286,0.7678584,-1.1496254
-0.34414947,0.24932449,0.42910445,-2.8821359,-0.6412901,1.8875216,-1.1669651,0.6533555,0.31914997,-1.3485029,1.4760122,0.3760029,-1.4471718
-0.06555644,0.11156559,0.770668,-0.5158085,-0.49987423,-2.4730058,0.47209334,-0.59416187,1.5171316,-1.4334478,1.0370522,0.8364215,-1.7337275
0.20528108,0.019913107,0.23405515,1.6869353,-0.42677373,-1.3917805,1.6784351,-0.36817575,1.5085518,-0.1381079,-1.6001401,0.17262918,1.6205883
-0.047156274,0.14775337,0.33407623,-1.4840368,-0.34873694,0.0043492084,-0.62830114,-0.27069527,0.13348436,-0.67901313,-1.5522045,1.649842,-0.35872006
-0.02590631,0.05234176,0.4107431,2.7334805,-0.48524725,-2.3840446,-0.4428724,0.92826307,1.6531613,-0.47192073,1.1523526,1.989915,0.34235907
-0.023104735,0.06310998,-0.06197311,2.0361347,1.2464042,2.102528,1.1548061,-0.7746999,-1.6012018,-1.323881,1.2465069,0.51432234,-0.6871433
-0.2278263,-0.20618738,-0.1508666,-1.5933543,0.20846142,-0.0246477,0.96954894,1.036452,-1.5137151,-1.7013109,-0.15445411,0.14239737,0.79671216
-0.22564846,0.030503765,0.06619301,2.7803988,0.8330776,-0.6982942,1.4704833,-0.33795494,-1.1151044,-1.576357,0.76456666,2.1041164,-0.64428854
-0.10600576,-0.09473985,0.38871968,1.3997153,-0.6329966,2.6472368,0.90009904,0.43436503,0.22572291,-0.7026757,-1.658986,2.0487962,-0.34068215
-0.04492387,0.057805933,0.20165643,1.9407023,-0.5289995,-1.5675994,0.18718338,-0.9884943,-0.68121684,-0.46738565,-1.050246,2.1394274,-1.7246623
-0.12389351,0.25560704,0.7112132,3.017248,0.25855386,-1.7821838,1.3161867,-0.82551146,1.4801021,-1.501283,1.3417141,1.418848,1.3005581
-0.1467061,-0.112446964,0.24492864,0.52088356,0.5799463,2.500953,-0.4613719,0.28430712,-0.8302888,-0.42061448,1.077729,0.1990358,0.5392437
0.087200366,-0.099422574,0.3629176,3.096871,0.6713222,-0.6444277,0.80637074,-0.55536693,-0.49227083,-0.16601849,0.39872146,0.6563491,-0.26602113
-0.0140834525,-0.1944023,0.46801203,1.3405087,-1.0233251,-1.8620402,1.268892,-0.011208534,0.81937003,-0.8161564,-1.1090579,0.66199076,0.02552104
0.076085076,-0.087003246,0.35383224,1.0675861,0.27641764,-2.1353047,1.0420146,0.35235012,1.3538635,-0.3856758,-0.046426177,1.0117439,-0.819823
-0.12466098,-0.111569166,0.3616431,0.300216,1.0314546,2.4005084,-1.2394404,0.8336195,0.44567275,-0.16429627,1.4573853,0.3217595,1.1382902
0.0592164,0.39514363,0.61262226,2.3727872,0.1476873,0.61875594,-1.4479538,0.60092986,0.59928083,-1.7221204,0.496526,1.5026065,1.2559519
-0.22435051,0.2069926,-0.031318866,-2.244176,0.91790545,0.48822808,0.6449623,-0.76993287,-0.9413069,-1.5480535,-0.8961919,0.4516691,0.31651878
-0.108823635,-0.12593754,0.4086553,-1.3503909,1.1246194,-2.499174,-0.31470978,0.7301024,0.12849379,-0.48156202,1.2322366,0.76267207,0.74899936
-0.089503296,0.01665613,0.2941881,-0.7497763,0.81580234,1.3876543,-1.4768345,0.38471997,-1.2821718,-0.1481818,1.3788841,1.2785443,1.2886865
-0.022486433,-0.19912368,0.36377954,0.5940757,-0.49047303,-2.2313673,1.2898562,-0.8630725,1.2912791,-0.33771837,0.63004756,0.5632978,-1.680222
-0.1082512,-0.022443287,0.12367774,1.6661718,0.2241745,1.9044539,-0.17036045,-0.7893927,-1.342632,-0.7636107,0.7996478,0.423384,-0.47788668
-0.045180783,0.1729042,0.32372522,-2.8296406,0.5717596,1.1490283,-0.51459575,-0.9005601,0.02404356,-0.85917443,-0.7115383,1.1370919,0.29091167
0.0060745627,-0.034850553,0.37057602,2.9696002,0.48170158,-0.5707802,0.08800769,-0.60086274,0.12269485,-0.26653922,0.52384377,1.3315963,0.2548598
-0.08229692,-0.0068171322,0.24904796,-1.716704,-0.26214752,-2.5564744,0.05884862,0.34202576,-1.4792087,-0.6773058,-0.6763203,2.1677477,0.9748347
-0.009956263,-0.027288774,0.3561914,1.4104872,0.20173506,0.5634516,-0.3050263,-0.4075688,-1.1107347,-0.32075262,0.85664296,1.4493548,-0.43272066
0.13754398,0.10488403,0.3377115,-3.023771,0.54282105,-1.797889,0.626214,1.0192492,-1.0640054,-0.13003099,0.2645223,0.69035363,-1.283542
-0.08263434,-0.16944996,0.47174525,-1.0017778,1.1678684,-2.4850113,1.0836132,-0.7621677,1.0238826,-0.37157917,1.4334638,0.14264032,1.4050508
0.022230972,0.18472269,0.7576609,-0.21655343,-0.6044516,-2.3632116,0.516495,-0.5530238,1.7084324,-1.6263992,0.69604135,0.94444776,-1.1074389
-0.050091147,-0.114543505,0.33807108,2.7421477,0.9426649,0.13038759,-0.025581002,-0.16736537,-0.66035986,-0.34323406,0.2777655,0.6308617,0.07780206
-0.04904139,0.15802798,0.56648356,-2.9089508,1.0620936,-0.014740593,-1.3688931,0.51213825,0.6655233,-1.0225035,0.303684,1.8575315,1.583957
0.042393066,-0.034819394,0.41395423,-1.7373681,-0.6737225,1.2208533,-0.028563738,0.43456972,1.7114489,-0.6680392,-1.0806539,1.568678,1.019963
0.083311714,0.048174515,0.19881801,1.888824,0.6999075,-0.0934709,-0.06618464,-0.43995756,-1.6696742,-0.70582175,-0.3223517,2.0576053,-0.5460315
0.08666981,-0.10074274,0.28931805,0.15258464,-0.45155045,-2.6607165,0.93754387,0.064118385,-1.0843642,-0.15721428,1.6909328,0.5364141,0.8611882
-0.133201,0.39184266,0.037061896,-2.9183147,-0.10579953,1.864172,-1.2464865,0.66575825,-0.68952894,-1.8135345,1.0182958,1.0134389,-1.1833339
0.009337975,0.03377074,0.31234473,-2.9744847,-1.4331379,-1.8725072,-0.5310844,-0.20787865,0.834903,-0.05460751,-0.98739135,2.0360584,-0.84966314
0.06269784,-0.032629088,0.43359625,0.9678394,0.6837758,-1.9164228,1.6220775,1.0553267,1.2799833,-0.6577687,-0.75821894,1.370443,-0.1832608
-0.08199103,0.2118874,0.3407309,-0.41806456,-0.4031669,0.8792469,-1.3082273,-0.43024707,-0.12653673,-0.41495,-1.6803256,0.5137228,-1.4786527
0.0664327,-0.19706555,0.34766605,1.3416258,0.45871168,-2.6760516,1.5090594,0.5743847,0.32463527,-0.73663855,-1.2554255,1.3784364,-0.70356584
0.13055292,-0.061913744,0.3398285,0.20043583,0.79719126,-1.8646206,0.7662113,0.79890025,-0.043465137,-0.12516093,-1.6951935,0.8144946,-1.470198
-0.20938802,0.037241008,0.45155987,1.5573477,-0.372602,-2.6008997,-0.6815053,0.98076534,0.9102638,-0.9366866,-0.2518766,2.1470203,-1.1925656
-0.25301537,-0.21536331,0.77830064,1.7217447,0.1898549,-0.024950484,1.5137069,0.14221549,1.2233279,-1.7505988,0.8145809,0.27616897,-0.6920246
-0.3010345,-0.14325869,0.5271606,2.9984481,1.475506,-0.3754919,0.7769973,-0.19246793,0.3825786,-1.0134356,0.7481952,0.4407559,1.1041312
0.1131393,-0.11365785,0.26917133,0.30456093,-0.33262512,-2.2688437,1.640908,-0.6044985,-1.6491317,-0.15708566,0.79543996,0.3118774,1.1542702
-0.23909824,-0.3018417,0.44711632,1.8140451,0.84152704,0.22904375,0.55510855,0.7404944,0.17092574,-1.4645196,1.6895766,0.9698145,-0.61954534
-0.29917407,0.01354233,0.72316116,1.3688291,-0.24500196,-0.5820137,0.515414,0.5864973,1.2712107,-1.8335584,0.6800642,0.94904774,-0.51035297
-0.42401305,0.014044799,0.5070301,-2.7996187,1.0132931,-0.5628906,0.57145643,-0.027256966,0.23714113,-1.620181,0.0826453,1.3401858,1.2541895
-0.16372912,-0.019396678,0.6177983,0.5245361,0.28766146,-2.645541,1.0245543,0.3235134,1.6338606,-1.1838745,-0.606408,1.8996117,-1.2171777
0.05499047,0.5822662,0.12929153,2.3781047,-0.51197124,2.8436565,-0.44920206,-0.54443836,-0.60554385,-1.7941192,-0.3299327,0.0052534565,1.188925
0.055458616,0.10067203,0.28684396,2.505487,0.2653266,-2.6252522,1.4392152,0.67806184,1.1586425,-0.15363812,0.31496954,0.7703398,0.20753491
-0.17772174,0.11323072,0.7225919,3.027384,1.0433948,-2.1729074,0.70745635,0.67768705,1.6281712,-1.4004211,1.3243287,0.76457846,0.5139923
0.105500475,-0.056838848,0.102975324,2.6543367,0.50429815,0.44607744,-1.614651,0.017011404,-1.6337959,-1.0277297,-1.163347,1.5428349,-0.44146907
-0.04346754,0.043829873,0.3142034,-2.3992407,1.2776526,-2.9421096,-0.29798365,-0.6362643,-0.873939,-0.16787481,1.2764461,2.03619,1.4856422
0.19697963,-0.06728949,0.24319871,1.9131757,-0.046329543,-1.3155618,1.3297477,0.16309977,1.1385128,-0.2240361,1.6115646,0.046785004,-1.6933422
-0.01977431,-0.048253305,0.41753268,-1.8167957,-0.39594573,-2.8921432,0.3674245,0.23725891,-0.90080994,-0.102265835,0.28811765,1.8100293,1.3348691
-0.23217192,0.04130085,0.042560212,-0.35788387,0.2819124,2.8474035,0.7175982,-0.21696872,-1.2268076,-1.1948514,0.86821723,1.4925382,1.3576427
-0.087751456,0.1202949,0.5523145,-1.1906687,-0.5629969,1.4065169,0.38411736,-0.65868133,1.2473767,-1.1131866,-0.8861878,1.3872188,-0.20905769
0.21260104,0.36812714,0.47119844,1.0349901,-0.5316734,0.35362524,-0.7357074,-0.9994555,0.27649117,-1.2097164,1.3707638,0.57560027,1.1055133
-0.13942853,-0.10374127,0.41056743,0.8230412,-1.2360637,-2.0567474,0.06520176,-0.26873708,0.9899614,-0.60907614,0.7602112,0.8522038,-1.3356003
0.31057408,0.36224592,0.20438746,1.2465034,-0.79416895,0.9581291,-1.0018303,-0.58808285,-0.5309595,-1.6773849,0.82032776,1.18256,0.9790034
-0.038593184,-0.059318773,0.40003717,-2.8760202,0.49909246,0.2237173,-0.37077153,-0.6780796,0.7255461,-0.33844125,0.20604336,1.2268177,0.8321161
-0.14338078,0.0012814812,-0.12352148,1.2155855,0.13210413,-2.8129041,0.7338464,0.67533123,-1.4327645,-1.2006378,1.5437586,0.10793282,1.2512314
-0.022520132,0.20769104,0.43899077,3.0965393,-0.8645507,2.4949791,-1.6105306,-0.5746718,0.5125208,-0.63362575,1.6339762,0.15140367,-0.41309917
-0.37822998,0.10300063,-0.0752302,-2.1810236,1.2458501,0.7084072,0.81705403,-0.3990106,-1.0304174,-1.7677765,-1.4763279,0.37385046,1.5585511
-0.020519901,0.068000674,0.14058952,-1.169611,1.0136672,-2.4698234,-0.2102238,0.79852366,-1.7030809,-1.0080283,0.09661412,1.571519,0.028951526
-0.05786979,-0.47137633,0.33739245,-0.87818134,-0.19083455,-2.573163,1.4529605,0.43106878,-0.05630362,-1.3067496,1.305476,0.88428414,1.4701595
-0.5928707,-0.16544369,0.41776824,-2.6718354,-0.6723293,1.2849613,0.55829716,0.3132298,0.41534448,-1.8228947,0.91624737,0.018415777,-1.7244021
-0.06931691,-0.04802833,0.22979045,-1.0283184,0.40169233,2.955547,1.5064387,0.19235384,-0.9726011,-0.6610507,1.2843328,2.070179,0.124032736
4.762411e-05,0.20807114,0.09111684,-2.6148562,0.06390412,-0.5880557,0.026837826,-0.6755824,-0.9637349,-1.1805866,-1.2598282,1.6479237,-0.67317104
-0.02825801,0.033801705,0.32725537,2.0592468,-0.212025,3.0754347,0.58086777,0.3936497,0.085369945,-0.112262845,-1.1309319,1.9497688,-0.44182777
0.008702926,-0.043000028,0.32709688,1.492944,0.3008919,0.737954,-0.8437128,0.5054554,-1.3937542,-0.4200238,0.75346303,1.5165558,-0.7191292
-0.37432128,-0.15663101,0.33294523,1.7457728,-0.56235045,3.1318443,0.19046903,0.82175016,0.039650083,-1.3184294,-1.6241382,1.7783047,-1.3229764
0.24883506,-0.06273393,-0.038170837,2.755342,0.3003317,2.6506574,-1.3812311,-1.0512427,-0.9958667,-1.5718464,-0.13650167,1.0802302,-0.99068666
-0.15023825,0.0532711,0.49650386,-2.401222,0.63981247,0.9505118,-0.79523927,0.39427054,0.77492905,-1.0494156,-1.1977055,1.5050112,1.2089221
0.071434915,0.11719618,0.4491209,-1.278294,-0.032566495,0.62633336,-0.87536573,-1.0053629,1.0952239,-0.77146053,-0.3912307,1.5995457,-0.77281934
-0.007933237,-0.026604183,0.23361091,2.8365571,-0.32080683,0.63162065,-1.4874971,-0.23410642,-1.2271138,-0.48742163,-0.6490654,1.4858637,-0.6272663
-0.069790326,-0.062697865,0.4009304,-2.7041416,-0.88050526,-0.4856355,0.22382426,0.21046603,0.6396065,-0.70289004,-0.62720454,1.2914455,0.3759036
-0.064050466,0.27621746,0.016274251,1.7608612,0.10827307,2.4098544,-1.0050154,-0.076939285,-0.9972877,-1.2695696,-0.30812788,0.3017633,0.8063712
-0.32420954,-0.1094992,0.77938104,-0.52680975,-0.2009561,-2.821592,0.5613289,0.9230454,1.3461478,-1.5681237,-1.0301507,0.8115909,-1.6972685
-0.09415178,-0.044891447,0.27029675,2.2371027,0.36118838,-1.3845366,1.2951915,-0.7028985,-0.036537647,-0.68939507,0.34704804,1.8285639,-0.8261727
0.2575501,0.15412945,0.088623464,-3.0828295,0.15293515,0.69530267,-1.5719006,-0.036390424,-0.81887186,-1.4567175,-0.80101466,1.9388909,-0.9195901
0.055984925,0.15668206,0.5602058,-0.77766144,-0.41435024,0.91653925,-0.105754495,-0.79501164,1.376003,-1.078464,-0.85564727,1.8269874,-0.74110055
-0.37642935,0.14270127,0.5835885,2.9426453,0.3271879,0.37691805,0.12173092,0.18893611,0.5306754,-1.7566755,-0.28268075,1.1456841,0.91799927
0.09103851,-0.17746207,0.28813863,3.1324139,0.7421586,-0.3730952,0.5987251,0.47158766,-0.385316,-0.5928756,1.7057123,0.52197874,-1.331531
-0.086923584,0.1657634,0.2169949,1.0088112,0.39419523,1.0206387,-1.0969449,0.14294565,-0.8625898,-0.8061037,0.9100492,1.2449995,0.65498185
2.7097762e-05,-0.107110076,0.2463036,-1.0996834,-0.5283981,3.022439,1.5088539,0.8158252,-0.5970154,-0.5956805,1.616384,2.0715916,0.48933053
-0.054233894,0.05653866,0.060933605,2.6342833,0.24094512,2.139913,-1.1967949,-0.71152467,-1.2269754,-0.79610825,-0.2098068,0.3470518,-0.68847334
-0.3187235,-0.23931612,0.12584108,-2.067638,-1.1135587,-0.5018047,1.109487,0.27122033,-0.47328544,-1.7023557,-1.2677915,1.1474087,-0.036871076
-0.11526983,-0.04800521,0.119577445,-1.211779,-1.2355521,-1.5444713,1.1228662,0.36052036,-1.4164379,-1.2270422,-1.1500844,1.9117932,0.5173867
-0.09951834,0.017712094,0.19548328,1.698536,0.3444404,1.6045643,-0.77792794,-0.82718444,-1.487907,-0.65170896,-0.6093749,0.697431,0.42970824
0.028694808,-0.12045497,0.39052132,-3.1050148,0.3383509,-0.4518235,-0.5046518,0.39408636,1.3879175,-0.22900152,1.2437942,0.58253366,0.5615411
-0.18890692,-0.012597475,0.41943902,-2.451524,0.25294608,2.0115194,-0.6877302,-0.8723309,0.97511506,-0.45151663,-1.3872688,0.35844618,1.5336511
-0.19873703,0.17494586,0.37621677,1.538262,0.7913273,0.9537007,-1.7072376,1.0118301,-0.121809006,-0.8353195,0.79882765,0.99914926,0.93998957
-0.1140775,-0.0129440725,0.31399298,-1.3234425,-0.33192715,0.97573596,-1.469786,0.9469602,0.42399502,-0.4619118,-1.6399413,0.9459328,0.27758503
0.17632818,-0.105435714,0.25833604,-2.426292,0.6664194,-0.60307807,0.14012659,0.7057159,-1.0458379,-0.42445338,1.5920508,0.1584817,-1.6465003
0.03284841,-0.019220404,0.5948158,-2.622246,0.4341551,-0.2592634,-0.0598464,-0.2869503,1.3693118,-0.8151064,0.45641518,1.399822,1.5764222
0.027971871,0.23605877,0.6074716,2.1335392,0.28390262,-0.15202828,-0.8001791,-0.24373674,0.8678856,-1.1145326,1.6111903,1.2103585,0.96006083
0.020659037,0.032686755,0.2640457,2.9074156,0.47917667,-1.9976115,-0.16511309,0.55276215,1.3025215,-0.105553746,1.6406417,1.7225608,-0.27187133
-0.12151923,0.23273805,0.8125614,1.4745154,0.54440486,-0.16136505,1.4419882,-0.7086525,1.6712403,-1.6286612,1.4295018,0.123779185,-0.05279112
-0.21836501,-0.2738667,0.060409572,-2.2340605,-0.40908223,-1.1280183,0.8218732,0.9425576,-0.8493378,-1.7999554,-0.28135383,1.2520436,0.03733194
-0.2635861,-0.32804966,-0.0060270727,-0.30210507,0.19822712,-2.6183505,1.0754488,0.85129225,-1.1054493,-1.6880467,1.3682885,1.2978315,1.4460609
-0.15171242,0.34634554,0.5141258,1.5412569,1.0298976,2.4384499,-0.30713475,-0.30258316,0.39088845,-1.6850784,-0.8222002,1.9939431,1.7127619
-0.0052870587,-0.030115023,0.28834933,2.945851,-0.93328995,-1.0153642,-1.0684786,0.7026105,1.0009837,-0.2600448,0.29722643,1.3784093,-0.36922562
-0.12344295,-0.29693875,0.20591919,-1.7181803,-0.6606169,-0.27814215,1.2207365,0.25873852,-0.32289302,-1.3916398,-1.3994666,1.2654015,0.92029357
0.08598027,-0.054063804,0.33911145,-2.2149477,-0.9327241,0.47799027,1.0337989,0.16519701,1.1560879,-0.45944345,-1.4646591,1.5721412,1.5102656
0.020321392,-0.14703587,0.23414731,3.056292,-0.9928943,-0.75382173,-0.19984865,0.772035,-0.69987476,-0.42003572,-1.6475203,0.32829866,0.024519801
-0.13786124,-0.01563967,0.20364016,2.6738532,-0.0030878445,-2.6389418,1.0128412,-0.34915382,-0.8342063,-0.64210224,-1.5298629,2.0106788,-1.0651972
0.018607035,-0.119226925,0.29381838,0.5787234,1.2400961,2.4099567,-0.09887266,0.30677772,-1.5838032,-0.415545,0.7065332,0.6846458,-0.37654448
0.160889,-0.18534377,0.2726423,2.5422919,0.48798412,-1.6125349,1.1395552,0.8895805,-0.025713205,-0.88789946,0.5164814,0.8356934,-1.062896
-0.09405746,0.0036969837,0.57326263,0.9555712,-0.006479741,1.9470776,0.98887706,-0.9579742,1.3513484,-0.6911849,-1.384176,1.4923038,-1.6679683
-0.0753731,-0.10104945,0.22680809,-0.8126874,-0.22966462,2.7339838,-0.5161654,0.96806335,-1.1899742,-0.40865004,1.0508199,1.2726958,1.3730924
-0.37182754,-0.298673,0.14032242,0.018202685,0.8617255,-2.9823194,1.1286979,0.041976452,-0.5447583,-1.4088954,0.7697966,0.49557164,1.3133292
0.0028466806,0.029675514,0.27239224,2.3970923,0.089404844,-2.2403522,-0.18604136,0.36909008,0.12244499,-0.119615436,-0.29834378,2.0464993,-0.851069
-0.0066868886,-0.009044163,-0.041484002,-1.132995,-0.62224877,-0.24689329,0.78283787,0.8414644,-1.5245328,-1.2292761,-1.6612947,0.60443217,1.2504215
-0.0124318525,-0.15713418,0.13215055,-2.291506,-0.6743113,-2.6323144,1.6051071,0.788283,-1.0924258,-1.175147,-0.029198289,1.7311108,-0.061185718
-0.117574856,0.04248504,0.3211925,2.176799,-0.9957939,1.6647589,-1.1835144,-0.69358087,-1.0540831,-0.39789283,1.0779555,0.8616972,-0.8857149
-0.32598785,-0.045104183,-0.1287046,-1.3643448,-0.8722413,0.20891763,0.7887964,0.596642,-1.2922513,-1.7920256,-1.329456,0.3045622,0.20537066
-0.13350607,0.123362,0.588664,0.93474096,-0.29918212,-2.6372318,0.021495461,0.6796404,1.6953609,-1.3235488,0.02291274,1.994783,-0.65672314
-0.22738215,0.21620181,0.4081915,-1.3695709,0.30045813,-0.5829065,0.6284802,-0.7000296,0.10796201,-1.544668,-1.6072648,2.2312732,0.2972057
-0.02122873,0.34891933,0.79101604,1.5850515,0.5082438,-0.41960448,0.02601242,0.29667616,1.6933858,-1.7227373,1.2843218,0.29761305,0.49252796
-0.18679397,0.114207,0.51369715,2.4962168,-1.3906605,0.5245796,-0.9066527,0.26094484,0.635329,-1.0815358,1.4115579,1.0067712,-1.1071156
-0.14470452,-0.025240906,0.41947305,1.613837,0.8282689,1.8199553,-1.1409345,-0.53460217,-0.52664256,-0.16479301,-0.7961975,1.0651273,1.6021283
-0.16994992,-0.00418479,0.7962112,-1.4683311,-0.6489751,-2.6988122,1.6147308,0.39495862,1.5963206,-1.1873014,-1.2916223,0.019931857,-1.6128771
0.14892423,-0.1496396,0.4510135,-2.6960742,0.14435698,-2.0381336,1.3853881,0.7080455,0.3290496,-0.82214963,0.4373598,0.62910295,0.3253429
-0.14819822,-0.092395514,0.33000454,2.5035615,-0.37470838,1.302537,-0.37812173,-0.6799749,-0.3283031,-0.3362298,1.5680215,0.59311587,-1.3275831
0.019957062,0.06524902,0.15484674,0.77106327,0.9504057,1.5618117,-1.1386073,-0.41954654,-1.5139451,-0.9495421,-0.55353963,1.733398,0.99601793
-0.1624779,-0.0017952919,0.3570494,1.9117445,0.23791018,1.3299896,-1.3735497,0.19559085,-0.31059182,-0.29853392,0.58729196,0.3083019,0.35682917
-0.11526799,-0.09852675,0.31531352,0.5052335,-1.0439316,3.0741687,1.0098829,-1.0452386,0.55412006,-0.34044027,-0.6977774,0.7892751,-0.95196605
-0.20189255,0.05641167,0.66096663,2.480168,-0.30363515,0.44799453,0.33216453,-0.3865621,0.89363265,-1.1551137,0.3742082,0.32302263,0.46067452
-0.1142549,-0.10369006,0.25644585,2.670927,0.092275254,1.1676948,-0.7322984,-0.5879719,-1.6311208,-0.3462479,-0.3519473,0.46560165,-0.8302731
-0.060067035,0.00028292835,0.5419672,-2.1902661,-0.7489172,-1.7163614,0.8116014,-0.07594937,1.0400047,-0.70536923,0.8889322,2.0433846,1.6453733
0.04566905,-0.074215785,0.0037023835,1.4361154,0.28865972,2.0564947,-1.061971,-0.68165815,-1.720961,-1.244376,-0.5828893,0.77218205,0.19791794
-0.09956348,0.023632117,0.26345488,-0.49801314,0.9093167,2.0590177,0.17943811,-0.09599966,-0.8885757,-0.49265885,1.2810354,1.6851754,0.6994672
0.057273135,-0.093025655,0.35088226,2.1802397,-0.09435427,-0.40011892,-1.2290285,0.86704445,-1.453349,-0.11419058,-0.5136533,1.2757443,-1.1016142
-0.39538884,-0.20339662,0.3471129,1.4966384,1.4655495,1.477054,0.8652451,-0.08970404,-0.123057365,-1.2704468,0.5963335,0.47904563,0.955657
0.041278604,-0.10369093,0.34960607,-1.0190498,0.7843224,-2.4980342,0.39818788,0.36195195,-1.202965,-0.28138375,0.5870328,0.7548185,0.20711946
-0.31208718,-0.0153290965,0.5480507,-0.44068515,-0.3578052,2.43294,-0.2929623,0.50016963,0.70554996,-0.9894961,-1.154525,0.45484862,-1.0039403
-0.46910077,-0.23335874,-0.04463406,1.2978377,-0.2186746,2.9417713,1.4629419,-0.018085837,-1.0110757,-1.7922206,-1.4177768,0.30776775,-1.6848699
0.039495453,-0.15694197,0.35436785,-2.3738508,0.48197514,-0.9027852,-0.32759285,0.9445617,-0.48893237,-0.3737955,-0.49691248,0.49238458,0.81782794
-0.27380615,0.015413348,0.03749433,3.1080112,-1.1244117,-0.7148186,-0.5587076,0.88137615,-0.6620116,-1.1547762,-0.63775194,0.883107,-1.34489
-0.053814545,-0.11325539,0.4382003,0.58879393,-0.51534414,-2.7864923,0.12604952,0.0678668,1.5438573,-0.54062176,0.1466682,0.9401302,-1.0621717
-0.38588658,-0.24349715,0.45178974,1.7838464,-0.9586515,-2.3736317,1.737571,-0.25038892,0.5184009,-1.8355347,-1.1577044,1.7695068,-0.75180775
-0.25549987,0.1610136,0.5696838,-3.0977135,0.6391339,0.41908768,0.06807399,-0.16379732,0.5354333,-1.4575834,-0.37905192,1.404166,1.2064526
-0.014607996,-0.10504228,0.371441,-1.5494182,-0.2981688,-0.18906425,0.6556971,0.15038276,0.25752723,-0.694276,-1.1776059,1.7841266,1.4391835
0.028713517,-0.009816803,0.27009147,-0.89616853,1.07803,2.6948192,1.4369359,0.8859955,-0.64354026,-0.6689352,1.3171196,2.1933522,-1.2011906
-0.1638788,-0.02508879,0.17490067,1.7107943,-0.28319743,2.1303587,-0.4910941,-1.0509111,-1.4494045,-0.6328306,1.3906319,0.277768,-1.2302676
0.02560673,-0.083259426,0.33557734,-1.3576002,0.6510036,-0.73455405,-1.7222433,-0.37203026,0.83089614,-0.06699288,-0.84926236,2.2368338,0.10638988
0.18823682,0.06293269,0.051433116,2.885394,-0.51546764,1.3778762,-0.66569865,-0.8844867,-1.1244373,-1.449861,0.19814408,1.9593136,-0.8975803
-0.1408608,0.067550644,0.40804127,2.7945335,0.5186035,2.1787288,-1.6189373,-0.13251823,0.5309391,-0.49769747,-0.9776438,0.8652254,1.4477463
-0.15013534,0.31550008,0.56988204,1.6620992,0.81375337,0.87014985,0.043334365,-0.81935966,0.4463942,-1.185289,0.6949105,1.0541949,1.647624
-0.30350924,0.5197777,0.3597055,-1.4981353,0.18081851,1.8031558,-0.0027832985,-0.4265133,0.2369237,-1.7196954,0.040145755,0.40701115,-1.6196167
-0.069003515,0.059072405,0.4234102,-3.0020459,0.29307583,1.7258042,-1.5210267,-0.54533327,0.81305575,-0.50974405,0.030775547,0.9025057,0.5604799
0.03436214,-0.00645159,0.29455197,1.5206026,0.21071713,0.7586845,1.2519658,-0.50037086,-1.2470667,-0.5771165,1.2880707,2.2141757,-1.3549105
-0.2393178,0.17387399,0.7864551,1.6231935,-0.05644333,-0.21673116,1.6545718,-0.82060415,1.4256017,-1.7742323,0.54754925,0.473514,0.14874601
0.04667138,-0.17176394,0.3675946,3.1364362,0.57763904,-0.019015051,-0.14540517,0.12873495,-1.1452885,-0.07129562,-0.23150074,0.10160492,-0.33689082
-0.1901339,0.2433518,0.26248258,-2.3855631,-0.5485013,0.04214728,-0.7332779,0.3243549,-0.05436194,-1.2275949,-0.75166416,1.5490304,-0.63061976
-0.022975579,-0.36018652,0.18004623,2.732417,0.43852603,-0.6391214,1.7134578,0.07219744,-0.4083494,-1.4428728,1.1782436,1.043937,-1.10688
0.16186693,-0.0371688,0.56327915,2.3138993,0.9253815,-2.8286588,-1.5127424,-1.0366168,1.0985568,-1.3092282,-0.9115984,1.6103127,0.38781333
-0.12937689,-0.13415113,0.096510366,2.805703,-0.2799575,-1.9235071,1.4065771,-0.11142188,-0.708591,-1.0904055,-0.6472131,1.3113278,-0.80469626
0.25190353,0.09852922,-0.03807146,2.0605793,0.11942439,2.187195,-0.7102139,-0.66676396,-1.403824,-1.8109767,0.2676549,1.1521714,-0.32593322
0.10689394,0.0870458,0.35392195,-3.0372412,-1.0839453,-1.7896694,0.25103116,0.95763016,-0.3377756,-0.10970855,-1.3812969,1.2651978,0.984046
-0.20320243,0.42428005,0.26569232,-1.7437117,-0.96627676,0.75096375,0.2833104,-0.7502655,0.042051435,-1.6208073,-0.6749841,1.5953766,-1.4112637
-0.09500912,0.16146967,-0.08718842,-2.519678,-0.23809826,-0.5400585,1.3270557,-0.8045336,-1.3688028,-1.4558777,-0.3181213,0.86444026,-1.1158109
-0.12926373,0.14972295,0.7562913,-1.4940381,-0.59770006,2.7073586,0.8689449,-0.25261748,1.6406744,-1.4872987,-1.6146445,0.54886186,0.036443233
-0.07732953,-0.030664995,0.34057766,-1.4409509,0.6371436,2.798027,0.49108624,-0.915738,-0.224774,-0.12829399,1.6225553,1.5221832,1.462614
0.11807111,-0.13993001,0.35053983,-3.0502603,0.117580734,-0.41643655,1.3505278,-0.9142151,-0.7000915,-0.07363069,-0.377136,0.035512216,-0.17870283
-0.22536482,-0.052933216,0.027049448,3.0583138,-0.7763699,-2.630242,1.6541121,-0.18349808,-1.1917746,-1.3949867,-1.3183401,1.4630231,-0.6185459
-0.036783516,0.066566795,0.567281,2.868362,-0.34372404,-0.60099864,-1.1495993,1.0320361,1.1490636,-1.0049183,0.6498673,1.338829,0.46498418
0.08385041,-0.089109994,0.13294664,-2.832759,-0.25356933,-1.1419195,1.6481562,-0.37253106,-1.0425982,-0.64341426,-0.39061522,0.33269805,-0.49214172
0.12285343,-0.082882315,0.59019846,0.27222994,0.05372822,-1.2256004,1.6633296,0.9828987,1.2749577,-0.8640276,-0.984427,0.8469031,-0.9321945
-0.056342155,-0.12839831,0.45134473,1.9869922,0.91923237,-2.2579377,1.3310127,0.28502738,1.0033553,-0.94559693,0.5396025,1.8527149,-0.5966772
0.037915796,0.29512382,0.52534443,-1.1436939,0.10965496,2.3271284,-1.481555,-0.19540519,0.7135799,-1.1860659,0.8807664,1.0938601,-1.676153
-0.39669365,-0.07717316,0.22255321,2.7682998,0.5992743,0.07399946,1.0034397,-0.2711417,-0.38839912,-1.62415,0.6811795,1.0848727,-0.06465781
-0.05692447,0.005790528,0.29654866,0.7683805,1.0413921,1.2875831,-0.66491735,0.27441895,-1.2692403,-0.45856464,0.56513596,1.3870779,0.28832746
0.15137288,0.005420089,0.12236865,2.7315514,0.3909888,0.12946738,-1.6280648,-0.1404807,-1.4478879,-1.0299342,-1.3680748,2.0151336,-0.53662634
0.35693517,0.3124026,-0.101774976,-1.7000821,-1.4800696,-0.5668096,-1.5747195,0.3132764,-1.228351,-1.8111985,0.7518189,0.08821624,1.1923351
0.023824487,0.04204452,0.35283643,-0.5835622,-0.8725132,0.60705405,-0.1862936,0.62213516,0.25088322,-0.34243453,-1.7246242,2.1490536,0.47789884
0.14243129,0.18889773,0.06900755,-3.0253277,-1.026263,1.7517269,-0.70121574,-0.44308597,-0.9688955,-1.6340246,1.0687394,2.17851,-0.8312224
0.1417113,0.0065244213,0.07060887,2.3919818,0.4744437,0.7438623,-1.1088276,-0.17138779,-1.5165788,-1.224544,-0.5583334,1.588138,-0.5072292
0.11608001,0.0029205903,0.1020368,2.8724682,-0.47382015,-1.7063972,0.9754448,0.6645278,-1.3942626,-0.5291141,-0.74309635,0.0484808,-0.8790009
-0.1423868,0.0007189661,0.017381981,-2.1355438,1.3717932,-0.49013495,0.00029814243,0.30172515,-1.2326185,-1.2055513,-0.011962652,0.6520701,0.27534175
0.1604159,0.15051225,0.7851261,-2.261079,-0.88145703,2.26293,-0.8659448,-0.0143066645,1.4466696,-1.6441951,-0.3289256,0.5259616,0.6760576
0.013075728,0.056721568,0.26770604,2.746193,1.2134998,-1.9240656,1.1712134,-1.0197072,0.39543295,-0.18308246,1.5476122,2.2323928,-0.12089932
0.08425457,0.0013515204,0.35516822,2.7755044,0.51653975,-1.2605381,0.9138677,-0.8139618,-0.6795727,-0.10168791,-0.084392905,1.4720569,-0.3837341
0.041033022,0.07330769,0.04867343,1.3387855,-0.32807887,1.7561282,-0.7049589,-0.21792835,-1.5912144,-1.1932421,1.0434418,1.1218487,-0.11977112
0.059389688,0.11115594,0.76612353,2.3628929,0.58338076,-0.28432336,0.39324975,-0.56239676,1.6231036,-1.1400669,1.102082,0.3264257,1.2679415
-0.23949215,0.027475812,0.23686741,0.58611584,0.64518005,1.9823395,-0.25584733,-0.045135498,-0.619912,-0.7028822,0.98817587,0.6271417,0.8351078
-0.24353224,0.21325505,0.3171929,-2.19727,-0.22556566,-0.46708986,0.9246187,-0.9609711,-0.06568813,-1.3949397,-1.0275095,1.8982601,-0.15704358
0.007916102,0.004103683,0.26248905,1.2956581,0.9503231,0.46984637,1.6320918,-0.6188717,-0.9396491,-0.6168231,1.0596771,2.0957477,-1.0394061
0.032535538,0.018288761,0.23818699,2.8025494,0.14104539,-2.1382673,1.3603485,-0.5995554,1.5611062,-0.05038905,1.4838922,1.3940048,-0.29693758
-0.21900319,0.27112377,0.26414013,2.211514,0.6945082,0.34268844,-0.3119396,0.051302075,-0.39430892,-1.4371227,0.6477518,1.6509887,0.50112844
-0.085711494,-0.077810794,0.32875466,0.7877454,-1.0846034,-2.9598749,-0.080605984,-0.121090114,1.2442284,-0.35080028,0.051193357,1.0361718,-0.8860622
-0.071368575,0.19201458,0.46498644,-1.770707,-1.3375155,-0.3487092,-0.567178,-0.033170342,0.7391348,-0.82910347,-1.1563588,2.202712,-1.1289492
-0.13827822,-0.023199737,0.37678647,0.268899,0.37562072,1.6656854,-1.6786817,0.60800207,-1.279453,-0.07513368,0.87706447,0.48866913,0.6279192
0.05284608,0.05566185,0.0018922836,2.6821299,-0.33724505,-1.253598,0.41449714,-0.3456043,-1.615392,-0.909059,-1.2695776,1.117111,-1.4992282
0.04327083,0.0043622926,0.22426136,1.2126467,-0.9519406,0.85206646,-0.6897367,-0.14295775,-1.5757055,-0.81602407,1.4375296,2.0326793,-0.61245716
-0.024434501,-0.012353733,0.38859203,2.5281775,-1.127783,-2.542662,0.31702876,0.9065639,0.4849255,-0.5147971,-0.66113114,1.8885665,0.56900525
-0.08838942,0.24906853,0.70107996,-0.43838477,0.15760343,1.9186764,0.477813,-0.91465163,1.2683916,-1.3388052,-0.90494037,0.9099502,-1.2089767
-0.050137606,-0.14472908,0.4966528,-0.51977247,-0.17801915,2.9465024,0.48542905,-0.63632953,1.461499,-0.4819113,-1.2386628,0.008265257,-0.17763245
-0.08405909,0.037284277,0.51726925,-2.5726469,0.8239536,-0.5812425,0.2924955,-0.82001233,0.66270804,-0.70752466,0.40745568,1.5556248,1.3731422
-0.06901175,-0.35256758,0.21553633,-1.6305466,-0.91133386,-2.3972642,1.5207512,0.5720084,-0.6353812,-1.4146355,0.48443604,2.147157,1.1713986
-0.33855146,0.11189759,0.6530545,2.8979237,1.0023266,-2.8992107,0.7136972,0.7145779,1.6760409,-1.7511458,1.5713704,1.5022737,0.7295611
-0.23246,0.3605947,0.41281903,-1.7016938,-0.33181122,1.1283128,-0.6335417,0.18728638,0.40496182,-1.534627,-0.7321558,1.1121562,-0.6851922
0.16033758,0.28329748,0.34399986,2.9478977,1.1887268,0.98949444,-1.3444291,-0.05642402,-0.12105942,-1.4814922,-0.99616265,2.0965443,0.30722117
-0.08191672,0.010408744,0.41216934,1.4233189,-0.6147644,3.0391421,0.74361944,-0.038062096,1.23438,-0.5172223,-0.51169646,2.0181797,-0.4881028
0.14681265,0.24902788,0.23052116,2.0841236,0.040410336,2.540141,-1.220537,-0.846491,-0.38416886,-1.1647372,-0.9233426,0.95325327,0.9112632
0.024223603,0.06846533,0.36445323,-2.939975,0.19866498,-3.0394788,1.1828222,0.7955487,-1.6606119,-0.0902189,-1.3618159,1.0907967,-0.39945602
-0.106749676,0.12262637,0.43970284,2.7022684,-0.33624366,1.4575481,-0.75130546,-0.8154858,0.43700194,-0.58188593,0.6831145,0.486382,0.26187778
0.50889397,0.23565483,0.38810706,-0.26870456,0.7073236,-0.71049666,-1.3115724,-0.6566905,0.1696955,-1.7279531,-1.7252795,0.8309502,-1.0211155
-0.34206438,0.1334631,0.40899134,-1.7942098,1.072397,-2.5187495,0.86592317,-0.81693786,0.05707264,-1.1446164,1.1691964,1.6251043,1.559453
-0.058089167,0.24535683,0.50811696,-2.0408764,-1.0440439,0.17697677,-0.08862734,-0.3520108,0.92850757,-1.2413367,-0.42384887,2.124128,-0.4461782
-0.22401792,-0.27720684,0.12668176,2.0986133,-0.5796963,-1.9236572,1.3886619,-0.050173283,-0.35284948,-1.3144863,-0.5951104,1.0812414,-1.1371131
0.27968028,0.08723432,0.5705249,1.7415003,-1.4723555,0.37170005,-1.6430612,-0.74515444,0.6144192,-1.1637561,1.7108531,0.8400308,0.5071006
-0.20765312,-0.22842956,0.21001408,2.6185699,-1.4521196,-2.6149442,1.7237368,-0.2162804,-0.41704977,-1.4244456,-1.5271398,1.6750383,-0.0074139833
-0.02206105,-0.12697902,0.3545769,-2.5895588,-0.8939698,2.6259708,0.78355026,0.9202343,-0.21034765,-0.4450823,0.8615401,2.1228504,1.1909158
-0.066123426,-0.008836215,0.22828715,1.7471802,-0.5661325,-2.444298,-0.23953867,-0.38952857,1.2509522,-0.11645639,0.28790212,1.8366654,-1.4992032
-0.34206504,0.1716484,0.1074428,3.0941164,-0.53674966,1.003458,0.9035752,-0.8807191,-0.530723,-1.6454304,0.967093,1.1963631,-1.2123904
-0.031984746,0.31033805,0.014374539,2.676976,1.3435532,1.3150089,-0.8540603,0.31956112,-1.0147485,-1.7659289,-0.5864644,1.1549262,0.23562872
-0.34586084,0.09350133,0.06646761,0.5960424,1.2573072,1.713882,0.94043136,0.17463362,-1.2445161,-1.8154047,1.6754973,2.007277,0.6406994
-0.20276932,0.20834967,0.021779276,2.3008795,1.1240686,1.248569,-0.63106954,0.7020116,-1.1132276,-1.6626165,0.30707216,1.1260785,0.18224335
-0.107949056,-0.063136496,0.19840959,-2.7337642,-0.24915633,0.9909115,-0.43185365,-1.0213121,-1.6062285,-0.3466587,-1.0871456,0.57885903,-1.0898867
-0.26026258,0.12939456,-0.15489599,-1.8496375,1.2918234,0.28999037,1.58059,-0.8571012,-1.4943587,-1.6607245,-0.44079494,0.04132577,0.8935766
-0.079796754,-0.008490328,0.35026336,1.0673703,0.13733031,1.017549,-1.2910056,0.7089455,-0.69376564,-0.38975453,1.7103226,1.1416857,-0.3501873
-0.28560954,0.009929806,0.54035604,-2.0490508,0.48679563,0.52220094,0.6859679,-0.15248656,0.7592449,-1.5651705,-1.6304889,1.8316176,1.1068912
-0.055290192,0.28882715,0.6432024,1.9896857,-0.41619885,-0.9425385,0.37360835,-0.4116509,1.2322752,-1.7075534,1.0204399,1.5128049,0.34870172
0.09233312,0.15983382,0.6767226,-0.09889687,0.9750972,0.9775457,-1.0305474,-0.8012545,1.2074709,-1.0733604,-0.91778576,0.2915289,-0.6212498
-0.15806611,0.5050616,0.61489004,-0.2478169,-0.11794408,1.0600767,-1.31398,0.9325956,0.7144809,-1.770342,-1.5399055,0.93134314,-1.565527
-0.019572042,-0.0709564,0.28888726,-2.7150712,-0.27548575,0.21810748,-1.6759353,0.45556116,0.70973253,-0.16464269,0.2682984,1.1949944,-0.08798289
0.065348685,0.017519347,0.67711693,-0.024558239,1.2010946,2.3708096,1.2806265,-1.0371984,1.7351472,-0.824949,-1.465513,0.5465885,-1.475719
0.07362832,0.49903715,0.33662197,-2.195986,1.2329853,1.6626431,-1.3553371,0.18876994,0.12530243,-1.6729869,-1.4582498,0.62534314,0.08077526
-0.0177833,0.0778781,0.24386008,0.87473404,-0.61997163,-3.1181843,1.545049,0.22807229,0.6967001,-0.06751692,-1.5841459,1.6826363,0.7061727
0.1746782,0.21070178,0.645572,-3.0239203,-0.4359094,-1.00775,-1.4085821,0.7124481,1.5735996,-1.4304647,1.634789,2.0119786,1.2789237
0.055736654,-0.112470284,0.13380495,-0.73845184,0.14790897,-1.3309193,0.45097685,0.2628808,-1.5331225,-0.7833017,-1.2818358,0.9643033,1.658247
0.026954114,-0.07796727,0.26513302,-2.9734526,-0.37331393,-0.2862673,-1.1371119,0.23666894,0.816813,-0.078962564,0.51650834,1.2592758,-0.16295743
-0.12220602,-0.4615565,0.59091944,1.3413031,-1.2718714,-1.3093507,1.6568294,0.21622884,0.6094756,-1.5744895,-1.3783436,0.13185291,-0.2557099
-0.16681015,-0.003220182,0.3221349,-0.46955782,-0.8995293,1.623148,0.69821644,-0.98301136,0.23023772,-0.4863218,-1.5957446,0.87332857,-0.5380862
0.2514434,0.07505998,0.8280782,-0.8955287,0.3298277,-3.0759692,-1.0453265,-0.2271781,1.697231,-1.7697465,1.0659871,0.64860165,-1.6054045
-0.09566924,-0.02336669,0.49861753,0.56938356,-1.08495,2.9680276,1.1211827,0.41305637,1.2943435,-0.97423065,-1.3550944,1.9666781,0.12407839
-0.07213816,0.11880655,0.2836059,-1.9316541,0.7435385,1.5838743,-1.4980712,-0.9905556,0.7225902,-0.20875585,-0.0811038,0.51277065,-0.52480316
-0.118369855,-0.09393534,0.14498748,0.22552395,-0.25331455,2.6320863,-0.15341115,-0.12980413,-1.2098707,-0.443192,1.0299163,0.11438178,1.0721898
-0.14856395,-0.11499852,0.72192955,2.554276,-0.253732,-0.5707257,1.2708416,0.52668405,1.3840964,-1.6114173,-1.1490375,1.0525562,0.9175155
0.037464887,-0.07543947,0.32752112,1.6801742,-0.19853085,0.1617776,0.6299684,-0.80155313,-0.88036364,-0.35793686,0.83921146,1.7098147,-1.3486445
-0.33875927,0.18087293,0.16967496,-2.5767338,-0.010993717,0.3570311,-0.38345826,0.41632974,-0.3312148,-1.5577924,-0.42339945,1.0155879,-0.31271505
0.050686136,0.3361892,0.60398334,2.4070444,0.18733437,2.8221655,-1.0206544,-0.16231167,0.8015897,-1.6457043,-1.5353131,1.5521624,1.571949
0.0610798,-0.10329876,0.12309491,0.36419365,-0.7118482,-1.2148844,1.6521695,0.27879524,-1.4441272,-0.7986295,0.23854983,1.5622474,1.6835871
0.12602228,-0.068860576,0.3849434,-2.784786,0.3689081,-2.006113,1.6818459,0.13891006,0.2599858,-0.5571599,0.82170963,0.66975504,-0.21167064
-0.02553807,0.03058885,0.47909385,-2.8076584,1.3589495,1.6276746,-0.42814553,-0.5210117,1.0847137,-0.9106773,-1.178184,2.0974193,1.3327584
-0.09263399,-0.25407228,0.4575191,-3.0098946,0.28698584,-0.033196732,1.0726194,-0.3091833,0.15644729,-0.816653,-1.138953,0.2489061,1.5372446
-0.06576614,-0.20666029,-0.0069800764,-2.9307604,0.48678625,-0.3875352,0.93169093,0.99001837,-1.193263,-1.5111091,1.6070228,1.1738083,-1.1129074
-0.17489013,0.17401558,0.7930634,2.2996535,-1.1753718,0.7823613,0.6823771,-0.7192085,1.3040042,-1.5719459,1.3688748,-0.008690296,-1.041977
-0.1804857,0.11342049,0.27289215,3.020803,-0.09399622,1.7749037,-1.479502,0.14170647,-0.13348567,-0.5802659,0.7136619,0.1900674,-0.68827474
-0.12138544,-0.022993729,0.378101,2.9414487,-0.51123744,1.1051271,-0.73483133,-0.837089,0.9598763,-0.32394218,1.5054207,0.62884235,-0.363271
-0.1225512,-0.11462354,0.34441403,2.5363984,0.23700222,1.0738357,-0.6989076,-0.53768027,0.4289012,-0.052054286,0.74401593,0.26275846,0.33747816
-0.32509023,0.001096636,-0.15582925,-1.3967835,-0.40323868,0.14493811,1.3932691,0.32507885,-1.6710279,-1.7861276,-0.33204615,0.10635742,0.066773534
0.09436542,-0.12195714,0.33264077,2.403944,-0.116823204,-1.6662686,1.2108703,0.2792436,0.2968948,-0.5512072,-0.19702685,0.6747532,-0.27961874
0.027745284,0.024607122,0.43946385,-2.4191198,0.72233844,0.0793342,-1.2643427,-0.14903551,0.75107646,-0.56350386,-0.039224625,1.9625512,0.81419563
-0.1672039,0.024871178,0.2843451,1.6393236,-0.5134311,1.7361084,-1.014189,-0.6285692,-1.1562681,-0.41344225,1.3146882,0.3616056,-0.856799
-0.276869,0.09315999,0.36403915,0.55114084,0.41832903,1.8626653,-0.50473034,-0.1266576,0.18109107,-0.5443268,1.0545716,0.11327422,1.5946934
0.10638312,-0.102884784,0.38060826,-2.582751,0.3475463,-0.7861603,-0.7205105,0.69013345,0.071538925,-0.060757875,-0.16190577,0.84642303,0.7878158
-0.11138213,0.13570097,0.34618133,-3.0656228,0.0052059665,1.6958877,-1.3815522,-0.2419762,0.09057844,-0.5796031,-0.004614711,0.5071208,0.01834941
-0.16656806,-0.05556551,0.4344616,1.8706979,0.36583325,1.4789445,-0.22387052,-0.99937505,-0.6412246,-0.056504607,-0.42629445,0.07576133,1.0751822
-0.16083911,0.108565465,0.033568025,-1.9081504,1.0397714,-0.12999496,-0.066238165,-0.23667109,-0.94884026,-1.2790523,-1.2848951,0.7872449,0.6963868
-0.22320971,-0.0533922,0.55338144,-2.8981771,0.07900769,0.6605347,0.9650748,-0.8401263,0.6592765,-1.0985916,-0.9807315,0.8367593,1.264607
0.09197502,0.020056888,0.62059164,-2.6367874,0.567795,0.6399516,-0.5253824,-0.20498896,1.4623306,-1.1648023,-0.087219,1.8928291,1.5912473
-0.047455594,-0.004345622,0.47155207,-2.7038677,0.7781657,1.5704317,-1.3903847,-0.3389814,1.2517855,-0.71295846,-0.38956726,1.3595883,0.967211
0.026431449,-0.12470647,0.58582455,1.3236217,0.13610764,-1.5394546,1.3612907,0.83020043,1.3037112,-1.1133554,-0.5419023,1.0487318,-0.25123775
-0.05386896,0.004999757,0.43481874,2.6238198,-0.44018394,0.8049133,-1.4241188,-0.4280764,1.1124365,-0.40775287,1.6366074,0.9649087,0.13931847
0.06177114,-0.080654636,0.36034355,-3.040126,0.7612571,-0.88062173,0.6466129,-0.6662965,0.60904527,-0.11398375,1.1959801,0.8649503,0.26237607
0.22326767,0.3607963,0.08090052,2.1393135,-0.032859445,2.922951,-1.3375753,-0.33714783,-0.6478013,-1.5997199,-0.86417735,0.47444102,0.853539
-0.055095498,0.088999376,0.48105508,0.6054349,-1.113696,2.3242803,-0.52822495,0.3870765,1.4294846,-0.74108815,-0.4806832,2.0041041,-0.72264946
-0.014174998,-0.19993955,0.25359023,-2.98685,-0.76211715,2.7274966,1.2912898,0.8785348,-0.69147503,-0.91204154,-0.30042958,2.2052686,0.30701923
0.009038821,-0.16532883,0.2460585,2.988894,-0.4945105,0.0253183,0.53949547,-0.65216327,-0.61735773,-0.22945547,0.20989823,0.40607062,-1.3010962
-0.32075003,0.23233008,0.52370405,2.0076265,0.34142783,-0.37848815,-0.40514123,0.61617935,0.48528433,-1.6902332,1.193747,1.4450165,0.44039488
-0.20716786,-0.046873882,0.5542978,-0.18100795,-0.602852,2.915498,0.9906211,-0.86905336,1.0730209,-0.86130685,-0.38315964,0.7025199,-1.1775708
-0.25502974,-0.1048715,0.35462654,1.3219283,-0.558045,-2.7262254,1.3411126,-0.7557426,0.3565433,-0.87642336,-0.87718934,1.476107,-1.2750216
-0.018404536,0.2975819,0.5959331,-2.8637962,-0.87808365,-0.3074403,-0.35926092,0.33534873,1.3284247,-1.6430308,0.112003446,2.1922631,0.51179504
-0.056800902,-0.15573576,0.26719213,-1.9168177,0.194907,-0.84850943,0.74957705,-0.12286484,-0.57590246,-0.73720324,-0.9486587,1.013517,1.0618618
-0.042153835,-0.07259282,0.6141846,-1.2594256,-0.5054931,2.5960147,-1.1034322,0.90565646,1.5237751,-0.9130609,-1.5722063,0.3169757,0.7195356
-0.0351197,-0.03835643,0.29249948,-1.5025156,1.0111016,3.0263925,0.3754909,1.0458272,-0.46741867,-0.57082176,1.1847813,1.8828434,-0.33889318
-0.23152398,0.28097594,0.53593826,2.8435287,0.31332564,-1.0986356,0.818748,-0.7740553,0.6481843,-1.5340075,1.1087253,1.9914507,1.010468
0.027516745,0.08025302,0.40488505,1.9201813,0.24789326,0.61068845,-1.5216708,-0.604802,0.011893034,-0.36995912,0.8171818,1.563102,1.0690849
0.13983318,0.28266504,0.40625626,1.6010864,0.111689255,0.80627966,-1.2101262,-0.56059265,-0.023058414,-1.0200536,0.7618511,1.432554,1.3687372
-0.14313528,-0.024686247,0.29550603,1.785921,0.38461682,1.4617573,-1.7141762,0.32880569,-1.565035,-0.36412394,-0.5134417,0.44386044,0.28341532
-0.02672489,-0.027606014,0.36538935,0.13800664,-0.3298507,2.760625,1.0015402,0.29183233,1.1939962,-0.3800429,-1.7216098,1.608863,-0.09646428
0.15499347,0.26456624,0.18451858,-2.0311604,0.080598556,2.416263,-1.7115042,-0.20624977,-0.31013417,-1.2927635,0.7243695,1.432367,-1.4825815
-0.19977921,-0.13689938,0.50320226,2.6030412,-0.48027802,0.20414804,-0.55384815,0.8083035,0.7177608,-0.89132214,0.93075156,0.2433196,-0.6361891
-0.2479159,-0.22074115,0.067453206,0.18724222,0.85695374,2.9129782,0.40451002,0.9633148,-0.90626913,-1.3616877,1.66961,0.8975283,0.47349238
-0.087697655,-0.012707543,0.45348874,-1.2215393,-0.03581268,1.6246015,0.09612501,-0.22544873,1.2927935,-0.71935284,-1.6898873,1.2264413,0.5008664
-0.12883326,-0.11735166,0.34446615,2.2600756,0.73209506,1.1627111,0.012233019,-0.76183385,-1.0722585,-0.20776021,-0.26551008,0.1361644,0.26593328
0.07314898,0.24176966,0.37413847,0.81435835,0.91424453,-2.7368276,-0.5884843,-0.86480427,0.09956837,-1.3283951,-1.645023,2.1482456,0.8907323
-0.14089133,0.33193716,0.069435656,1.7363987,0.9534665,1.5203003,0.15360951,-0.31577557,-1.0804405,-1.8338801,0.35565686,1.5315403,0.45471406
0.056991216,0.01512621,0.38215306,1.1366254,0.42550132,0.8422444,1.4152949,-0.9681695,-1.3634708,-0.26844335,0.9899969,2.0273433,-1.0766999
-0.14855197,0.029138662,0.16143224,-2.227341,-0.13184047,-1.6844324,1.0214674,-0.40712184,-1.0247698,-1.0783801,-0.9056984,1.7923484,0.042518497
-0.2302899,0.21739171,-0.008397497,0.91370326,-0.020240191,2.1412745,-0.970217,0.83093,-1.0459843,-1.3516465,1.0738952,0.5556516,0.82864165
0.054124817,-0.12974948,0.76251566,-2.285727,-0.6671396,2.398379,-1.190757,-0.8225422,1.6152449,-1.211659,0.17761171,0.22926813,1.1469209
0.08539114,0.25784793,0.19911304,-2.8119955,-0.67562115,1.4514791,-1.1789219,-0.22038382,-0.33324873,-1.3463625,0.4855306,1.7275746,-0.7742326
-0.06954534,0.30565637,0.24230495,-1.0930145,0.010394141,0.99172586,-1.4294066,0.014487982,-0.19200945,-0.7718233,-1.0847938,0.46869826,-1.2749902
-0.15057123,0.055802293,0.27306134,-2.0645914,-0.010321407,1.5063434,-0.89701456,-0.72297037,0.13897157,-0.26819837,-0.1095376,0.3653549,-0.83541894
0.08588187,-0.28107458,0.30418238,2.1020842,0.51075697,-0.73150396,1.2697744,0.4919083,-0.021368861,-1.0823444,1.1112311,1.1316661,-1.4690527
-0.08606584,-0.0850349,0.40473056,2.5045075,0.6823103,0.7162503,-0.37673414,-0.7667253,-0.57546425,-0.15339923,-0.31025517,0.7590693,0.6445577
-0.05945623,-0.16895953,0.40503314,-3.1136363,-1.355898,0.3558519,-0.61602104,0.45133793,1.5777044,-0.38992333,0.86046886,0.10533142,-0.59751034
-0.055557474,0.05082055,0.13594918,1.6265421,-0.52005106,-0.7173674,-1.1440604,0.87467015,-0.8118995,-0.8730476,0.04470384,2.238762,-1.6906905
-0.05521453,0.030404244,0.49356684,1.4103119,-0.4138764,-2.2525811,1.0285974,0.62273407,1.6959016,-0.9101208,-0.40173483,1.6502905,0.26549459
0.14530225,-0.007795319,0.3229259,2.9442186,-0.1253147,-2.1139731,1.61081,0.40401137,-0.07301283,-0.45489752,-0.41331697,0.5534362,0.17560089
-0.12898582,0.030008718,0.54303277,-1.818915,0.23378785,-0.8130922,0.98986864,-0.8019098,0.68298817,-1.010285,-0.099547386,2.1011477,1.5901551
0.07804635,-0.04858969,0.4023345,2.9633753,0.2952537,-1.41055,1.4171886,-0.599819,1.034558,-0.38265145,1.1296685,0.7986206,0.016858816
-0.0642993,0.037983,0.28740117,-2.4112039,0.0039367783,-2.4072883,1.2786608,-1.0127057,-1.5098182,-0.51272523,-1.1946657,2.1859238,0.24821329
-0.2572941,0.22882156,0.0053641573,1.9630654,0.76385427,1.597094,-0.37109983,0.62991536,-1.1748304,-1.7818692,0.90132403,1.0522312,0.12809539
0.0386864,0.009915486,0.12282959,-3.1068995,0.6112553,-2.726293,1.3094959,0.8706113,-1.069299,-0.6827749,-0.38621688,1.267179,-1.3145063
-0.109615155,0.10922074,0.28929675,-2.2371645,0.92922515,-2.4128351,-0.68933916,0.271927,-0.65499306,-0.5539818,0.70611954,2.224835,1.2352273
0.04554177,0.11086075,0.040489215,2.4033422,0.38150245,-1.0711696,-0.23180151,0.7232661,-1.6117374,-0.99804044,-0.7592936,1.7503742,-1.7314392
-0.4183385,-0.17770499,-0.07356234,-2.0067306,-0.8240956,0.45811152,1.1298633,0.15235424,-0.76392144,-1.7465578,0.21523595,0.081004575,-1.2949288
-0.29153135,-0.2598792,0.46792492,1.368754,-0.83376306,-1.7440492,0.8001015,0.33922076,0.57572913,-1.3992887,-0.27506578,1.072872,-1.0335429
0.14356276,-0.004722018,0.3319674,3.108279,-0.67881316,-1.2817441,0.35157943,0.34289145,-0.30397213,-0.08354199,-1.22755,0.8038362,0.4627247
-0.0528165,0.034779225,0.35545966,-1.619094,-0.9939425,0.65989035,-1.730319,0.7038499,1.2140939,-0.46489203,0.01300025,1.4272543,-0.55156446
0.012486085,-0.15662044,0.3762057,2.4025695,-0.8246864,-1.1760418,1.4662182,-0.56517744,0.56290627,-0.570307,-0.56372726,0.6120617,0.03205967
-0.34067082,0.16104645,-0.1327318,-0.96376646,-1.2694052,0.9064324,0.37932634,0.31264567,-1.1874278,-1.5524585,-0.60338724,0.04523009,-1.6128485
-0.045706272,0.066682324,0.45683002,1.2551852,-1.223589,2.0926821,-0.4419626,-0.16869783,1.2724829,-0.46249092,-1.1906421,2.1353128,-1.4811807
-0.5131465,-0.01778943,0.37907752,-1.2732289,0.8192135,2.8672807,0.16269374,0.5147885,0.07411754,-1.5352368,1.6261041,1.2947117,1.5721872
0.4832401,0.045733564,0.45635787,-1.7503488,-0.9392357,-2.0030138,-1.6545588,-0.9770403,0.13537884,-1.4009646,0.5324049,0.3271218,1.0135548
-0.13502686,0.29016685,0.041454487,2.767866,-0.28412586,1.4212402,-0.3475449,-0.0057241917,-0.9227493,-1.7505336,1.1403172,1.3580794,-0.8116471
0.10149731,0.32978052,0.059430268,-2.4577007,-0.2977011,2.5134394,-0.53469324,-0.66881347,-0.7727862,-1.7529086,1.2238083,1.592153,-1.32445
-0.4005661,-0.2425884,0.5634931,-3.0035,-0.6768944,0.29110184,1.7197058,-0.50619996,0.6276221,-1.8197216,-1.0242711,0.6904936,0.307225
0.14826393,-0.044742495,0.3117986,2.8262382,-0.14253947,-2.5895832,1.5050077,0.8909167,-0.07423854,-0.69735837,-0.46138978,0.88760215,0.17545533
0.13485113,0.3309564,0.020878494,2.4529722,0.84932,2.5124276,-1.2529533,-0.14931506,-0.73898494,-1.5562131,-0.85540336,0.49707016,0.13716412
-0.13665083,0.1595783,-0.0017928388,-0.19465768,-0.067843914,1.8235132,-0.0026416779,-0.4483062,-1.173006,-1.0456545,1.0348856,0.93476564,1.5752177
0.058686294,0.06971021,0.43999618,2.928359,0.13538136,-2.413375,1.5631514,0.11946261,1.5695629,-0.46442413,1.0388396,0.89078975,0.4448924
-0.16799983,0.39571562,0.21137077,1.3750222,0.56424177,2.8938673,-1.3529223,0.55171406,-0.32985806,-1.5944726,-1.1773765,1.3573667,1.6671672
-0.063264064,2.1178275e-05,0.32291293,0.32597223,0.9611181,1.5641918,0.44644952,-1.0030152,-1.5313953,-0.3349179,0.4035287,1.3284805,0.482476
-0.11503972,0.482287,0.18799992,1.1397777,0.36321354,0.86539733,-0.046936512,-0.44453216,-0.56409097,-1.769069,1.2220097,1.4707465,1.1563101
-0.15781885,0.08426183,0.58286345,-1.210389,0.31863198,2.1656747,-0.6191962,-0.34474605,1.0484996,-0.8821385,-1.6952988,0.11477224,0.4434302
0.07016583,0.21796249,0.8194595,-1.7585101,-0.9904835,2.9153762,-0.46133614,0.13823187,1.5224736,-1.6203498,-0.6418874,0.11343992,0.39361596
-0.4381612,-0.085351385,-0.04830382,1.3071245,0.6983329,2.6465833,1.1230855,-0.11159825,-0.92520803,-1.6249005,1.0922513,0.051680274,0.835181
-0.2637693,-0.33926728,0.34827712,1.4688839,-0.7081255,-1.7993788,1.0931928,0.18373048,0.2549579,-1.3672436,-0.3111571,1.010903,-1.2402856
0.078752115,-0.09921409,0.2949876,2.5762198,-0.08830166,-0.68537974,-0.7516567,0.9044273,-0.28454435,-0.20646834,0.27050662,0.88678145,-0.85460657
-0.0023054779,-0.05915504,0.11931491,0.02132955,-1.1441265,-2.4259129,1.7276304,-0.10822487,-1.6524673,-0.6802887,0.84541273,1.7951035,1.7154632
