x,y,z,R,P,Y,t1,t2,t3,t4,t5,t6,t7
0.025948778,0.0066897273,0.41224584,-1.8615931,-0.23355046,-1.539042,-0.9430922,0.6685736,0.17904162,-0.17431164,0.07764673,2.231821,1.2504573
0.072145544,0.058220975,0.36687225,-0.5240557,0.24846083,-0.827167,-2.104006,-0.7623811,0.61848664,-0.28807425,-1.884769,1.1811637,-0.71574986
0.37248665,0.17520428,0.3939114,-3.0671308,0.24174856,0.23824178,-0.66439044,-1.1905928,-0.046138763,-1.4268348,-1.0892236,2.9437785,-0.86074924
0.32725546,-0.0962985,0.7494443,2.0523071,-0.7633901,-0.0132002905,-0.9751873,-0.047320843,1.9963887,-1.3508564,0.32267904,0.020878565,1.5609229
-0.15752566,-0.07723404,0.624509,-1.8839761,-0.8711091,-0.1448912,1.9663885,0.23280323,1.4772053,-1.7345383,-2.1413102,2.7688725,0.71912694
-0.033655703,0.38212365,0.049285814,-0.12337677,0.1384049,3.1201186,1.2058575,-0.93385005,-2.053114,-1.9391987,0.24065185,2.1776276,1.0480366
0.53062814,-0.28000075,0.63440704,-2.1709065,-0.6715052,-1.6532836,-1.2470559,-1.284362,0.78317595,-2.4349906,-1.1691283,1.2616924,1.7292974
-0.17974226,0.04971923,0.55604786,2.2892065,-1.2835177,3.0873952,0.08688402,0.69058514,1.2399027,-0.9890907,1.4143178,2.9185514,1.9269679
0.10851539,0.3410421,0.29365182,-1.6713781,-0.16512513,1.3883783,-0.27767062,-1.2713675,0.14507484,-1.278279,-0.14100242,1.4621462,-1.3102064
-0.11183488,0.066943005,0.25434804,0.5597075,-1.2692882,-2.5438166,-0.4527694,-0.6045049,0.047843456,-0.57197845,0.063155174,1.7961262,-1.7948537
0.17069505,0.049167812,0.7871909,1.1925107,0.59646964,0.18641602,-1.9119282,0.3178991,1.4373007,-1.3464761,-2.0060396,0.1478154,-0.48229408
-0.034784928,-0.323021,0.5727599,1.9534997,0.18686278,-2.9279456,-2.1911516,-0.4581743,1.8376648,-1.6389852,-0.5830612,2.9126806,1.3650787
0.049554527,-0.06153096,0.36139265,-2.0855522,-0.30963263,-0.015853701,-1.5733788,1.2394769,1.433074,-0.3613255,0.053122044,1.4578981,0.89667964
-0.14247671,0.55142635,0.14741953,-2.6047215,-0.14784193,1.6164774,-1.2929548,0.9874232,-0.44712484,-2.4089034,0.5930445,1.2953416,-0.89037526
0.30178568,0.07297276,0.5731728,-1.9852802,0.3191171,1.3796817,-0.63309216,-0.2616992,1.8577931,-1.7606688,-0.90461874,2.2146392,0.44632554
0.33603895,0.47738782,0.19726183,-3.0632713,0.01249545,2.5439672,-1.5951864,0.42996216,-0.4061154,-2.44496,0.5050783,1.1418236,-0.36502552
0.23735493,0.24166773,0.646965,-1.0206695,-0.15417549,2.1885126,0.073132515,-1.4084942,1.2007923,-1.8668473,0.3591051,1.5179888,-0.8807633
-0.17183842,0.091903545,0.17777628,2.212251,-0.45051694,2.465385,-1.8266697,0.002665639,-1.013107,-0.66985404,1.947746,0.2151733,-1.8128862
0.029296469,0.06573613,0.5297289,2.358176,-0.32180864,0.4747264,-1.7642854,-0.021229744,1.0118322,-0.69006956,1.6045244,1.1278542,0.5575106
0.39674208,0.20948082,0.45664316,-1.9896795,-0.03802942,0.658226,-1.8739476,0.23472977,0.5619302,-1.7783942,-0.7497009,2.5161374,-1.091163
0.045473233,0.090958424,0.20482513,-2.4354622,1.0874859,2.7780907,0.98960614,1.3949242,-1.1053692,-0.36185813,-0.55351007,1.2858354,-1.6700896
-0.019713767,-0.017819844,0.4479181,1.226473,-0.343729,-2.6108072,-2.26475,-0.07162213,1.7612526,-0.9674227,2.2854836,2.9574974,-1.4840057
0.060067073,0.22719298,0.17441535,2.49177,0.7359717,-0.78034085,-1.6498957,0.69517136,-0.8711208,-0.88737965,0.27661157,2.7123687,0.52536416
0.2742281,0.33264574,0.2392659,2.466379,0.59834635,2.7197003,-0.8679013,-0.88517755,-0.17252254,-1.6452599,-0.93699837,0.9465262,0.30039144
0.44972068,0.50286096,0.46115872,-0.0011169423,0.87360585,-0.2713717,-1.9549011,0.6916046,0.41006184,-2.2127306,-1.4566737,0.568251,-1.0724219
0.24871883,-0.10545822,0.007281881,-2.4759374,0.040853575,2.5678337,-1.0865388,-0.38981652,-1.8552668,-1.8112323,1.0737786,2.461631,-1.9250623
0.046047203,0.0031710789,0.29234248,-0.47026262,-0.4702443,0.23786137,0.99008894,-0.30292535,-0.9337485,-0.48199928,-2.307091,2.185967,1.3781126
0.09470916,0.09899918,0.3364054,-2.079336,0.50169605,-1.593374,1.7766483,0.3240881,-1.7443256,-0.38237953,0.9192176,1.1967975,-1.491354
0.11891715,-0.0023534745,0.17594111,-0.2718981,-0.6557715,-2.1305692,-1.9229083,-0.28893316,-0.7434175,-1.0121138,2.2709816,2.3556397,0.33524346
0.22694942,-0.38199395,0.48236138,3.021235,0.47730535,2.1328611,-2.2821016,-0.76360565,0.6089864,-1.7625065,0.08466315,2.7467422,0.28079677
0.004815802,-0.04390109,0.2873718,-1.96612,-0.05763962,1.5607275,1.8204658,0.51444805,-1.4800711,-0.15906286,-1.647511,2.4371629,-1.4065944
0.26160955,0.12482123,0.46853152,2.5416756,-0.2898351,1.8327674,-2.1485612,-0.10528779,0.23519015,-1.2687596,0.14930773,1.5459065,0.87718606
-0.45146006,-0.21801308,0.5789739,-2.9577878,-0.07896849,-0.33089912,0.21352696,1.4033003,0.9007249,-2.4124217,-1.0381747,1.4951178,0.56762886
0.026952088,-0.0080474615,0.2841913,1.6350029,0.45536363,-0.9730135,-1.8409745,0.03212154,-0.5097798,-0.119428635,1.856004,2.2428467,1.1387138
0.35435143,-0.46048713,-0.051463306,0.8800495,-0.99085,-2.94998,-0.82339096,-1.2915564,-2.226903,-2.2528014,-0.34082997,0.1949893,0.90053797
0.028043672,0.032702494,0.40785053,-1.5052204,-0.4343889,-1.121922,-1.3939054,0.90215826,1.2024698,-0.21415758,0.7133565,2.5845497,1.3238587
-0.3811704,0.12731753,0.13807431,-3.0498235,0.11470818,-0.32821187,1.6947782,-1.100336,-0.56874764,-1.9163413,0.10091615,1.6620878,-0.40189624
-0.12761733,-0.10818569,0.109115005,1.3891416,-0.80181074,0.6775803,1.5258918,1.203471,-1.9486697,-1.3030654,-1.0759556,1.8684043,0.22982264
-0.14604422,0.11214045,0.23826826,-0.30861735,0.021212067,2.8071926,1.9767349,-0.18729568,-2.2186906,-0.673295,1.0913169,2.5899818,0.600441
0.11735149,-0.30378795,0.12568128,0.11635434,-0.4598365,-0.25357237,-1.9436699,-0.32746255,-2.2184386,-1.4898627,0.84664226,2.2982452,0.6732042
0.2127414,0.3809337,0.13511884,2.3920972,1.4083688,0.7114112,0.9121661,-0.9983287,-2.104737,-2.0735698,-0.006595373,2.121797,-0.6564716
0.060634773,0.012398187,0.26784867,1.9957452,1.2644138,-2.7969506,2.1087859,0.12698984,1.0146008,-0.22555113,0.02036333,1.2718785,-0.7301403
-0.0960182,0.1075959,0.6175926,0.5764553,-0.35460064,1.5480515,0.69567156,-0.7346634,1.2662966,-0.93626034,-1.7204679,1.6585242,-1.5024834
0.13822302,0.46244153,0.50574535,-2.2839532,-0.01958384,1.2161591,1.2604234,-1.2276843,2.069864,-2.451764,-2.0675793,2.2019088,-0.2753675
0.2551132,0.04766321,0.42530397,2.7525249,0.18613815,-2.4429312,-1.9342883,-1.275173,0.30706763,-0.9206226,-0.8087374,0.5003535,0.61560965
-0.116698936,-0.104175165,0.6939928,0.38400018,0.80986804,0.92834413,-1.5241911,-1.1007917,2.0527284,-1.1292921,-0.4381405,0.17985734,-0.30075502
-0.0702087,-0.022369832,0.33123994,0.03534554,-1.0476424,-2.319496,-0.03425002,-1.3951732,0.6013191,-0.4303224,1.4244897,1.9309148,-1.598741
0.18299095,-0.10022232,0.004494004,2.668843,0.34320572,1.0488832,-1.415664,0.10573423,-1.7475045,-1.3509331,-0.35879683,1.2709819,-1.0845304
-0.26606172,-0.44503516,0.51830363,-2.6839345,0.7047889,-3.015079,1.3989532,0.94959664,0.8175037,-2.3201404,0.9878316,2.0402064,0.9640918
0.0028098226,-0.46512043,0.5334158,1.7705166,-0.023931405,-0.81326145,2.0063007,0.08090544,0.60706353,-1.6634336,0.40658832,0.7502532,-1.1458511
0.036524646,-0.027870283,0.41314164,-2.0781598,-0.12113961,-1.4027178,1.0363102,-0.83421737,0.55644083,-0.26456213,0.34311748,1.6449549,1.1819367
-0.06325561,-0.1127491,0.6523427,-1.7369878,-0.22639053,2.460618,1.2951939,1.2973373,1.4219513,-1.1688251,2.3144848,1.0249618,-0.039325
-0.06265093,-0.0772296,0.31890884,-2.9008005,0.59973186,2.162434,1.093487,0.19780886,-0.31023812,-0.29023695,-1.4214518,2.679782,-1.6591444
-0.23181893,-0.18912259,0.18744737,-1.0838027,-1.1229295,0.49788445,2.007099,-0.85554796,-0.32966733,-1.3037168,-1.8820632,1.262534,0.32674074
0.58888334,0.115223214,-0.018630207,-1.9101466,-1.0213001,-0.89739895,-0.55940557,-0.6340654,-1.8810674,-2.2189305,1.5813046,0.49701852,1.1003602
-0.30351335,-0.38073826,0.5487398,-0.99211526,0.6243205,2.1044617,1.9250743,0.0028748512,0.6510458,-1.9533143,2.1498,1.2232193,0.39568973
0.23254073,-0.098819,0.033684682,2.2098365,-0.9116947,2.833496,-1.2787993,-0.119211674,-2.0984883,-1.6311071,1.5094259,1.4298862,-0.4583001
-0.49324033,-0.10276662,0.5778685,0.86804086,0.3613819,1.8878971,0.85523844,-0.123138905,0.31161404,-1.5553336,-2.2730205,0.42722523,-1.8252823
0.28880376,0.1798407,0.5601791,1.6096609,0.041709375,2.5260606,-1.042702,-0.78557855,0.5719571,-1.779879,-0.9561031,2.2961693,1.4747844
0.17312951,0.13276616,0.7546653,-2.0690103,0.18425377,2.7138832,-2.206263,0.66393065,1.2571082,-1.5587608,-0.583277,0.4762609,0.41436148
0.22115237,-0.37121654,0.050104856,1.2540165,-0.7253943,2.318554,-2.152404,-0.81148344,-1.0073996,-2.1878796,-1.0216441,1.4350089,0.16504622
-0.22580856,-0.16306692,0.46891898,1.8844075,-0.71914256,0.7262735,1.4816554,-1.0085675,0.2590108,-0.9909024,2.2920926,1.3104769,-2.0145283
-0.2617216,0.11032465,0.39061987,-0.76762944,1.2965598,-2.2086103,0.23047423,-0.57684135,-0.08389163,-1.0507451,-0.18833804,1.6062253,1.6902611
0.47826526,0.013421133,0.47258627,-2.0491924,0.8638208,3.0018682,-2.016737,-0.45260102,0.4044056,-1.8984325,0.79328775,1.1710194,-0.9080982
0.34636438,-0.26275852,0.58007336,-3.0766802,0.8751277,1.5101635,-2.269992,-0.1787653,1.2235222,-1.9474192,1.3620384,2.9276037,1.9739778
-0.17606172,0.2908328,0.39354336,2.054906,-0.5278136,-0.04772787,-0.3178686,-0.09514654,0.17101431,-1.5078403,1.1223052,1.6246215,-0.1409967
0.14691532,0.018399931,0.21821618,-0.6966152,-0.666728,-1.8424565,-1.8053195,-0.64574784,-0.7912494,-0.9162767,1.8806584,1.7493272,-0.05037999
-0.15094638,0.5063304,0.2976697,1.6289271,-0.95468986,-1.5770394,-0.644732,0.4082526,0.39930296,-2.3745391,1.8076799,2.8887718,0.5445745
0.14211066,0.23771983,0.105553254,0.8114894,0.1351736,1.7680734,-1.443267,1.3986638,-2.093192,-1.4483616,1.2087219,1.9802806,0.472198
0.22681208,0.015957266,0.18428206,2.3638983,-1.2037572,2.641936,1.9404619,1.2582486,-0.72933877,-1.0514262,-0.3727255,0.96939266,0.7514198
0.14339252,0.04380457,0.45930693,-2.240039,0.01696675,-0.43838856,-2.2839005,0.28649592,1.1391902,-0.5192081,0.03879881,2.760039,-0.38078225
0.042612627,0.273352,0.52675223,-1.1310802,0.1275193,0.46989015,-2.2144792,1.290757,0.85725117,-1.2909915,-1.4220378,1.7258046,-0.56811905
-0.33048558,0.14159708,0.05211016,-2.8342793,-0.30044907,-2.4674513,1.6339104,0.56472874,-2.1889403,-1.4340675,-0.290797,1.3159486,-1.7002869
0.30554226,-0.08465819,-0.06565191,1.6230885,-1.3116746,2.693596,-0.7827387,-0.8576068,-1.8666261,-1.7923943,1.1682057,0.8522831,0.13836765
0.2878635,0.16882898,0.67440474,-0.0593997,-0.22030349,1.6945357,0.029837608,-1.3949926,1.5192173,-1.8276863,-0.08417487,2.0338802,-1.557327
-0.5709005,0.028149154,0.21353877,1.0023967,-0.9763031,2.906274,-0.5783751,1.2655501,-0.19889069,-1.727911,-1.2569542,1.0828465,-1.6970477
0.39901596,-0.088513836,0.7444387,2.5247073,-0.5088889,-0.15841259,-2.151266,0.6718354,1.8093841,-1.7453934,1.4837177,0.79970896,1.1952403
-0.098981194,-0.057762433,0.38672873,-2.4623017,1.2103784,1.4196284,0.53297186,-0.57124996,0.80209374,-0.6915014,-1.6097851,2.1625748,2.05466
0.15379362,-0.14047222,0.2875406,2.6624408,-0.05019292,0.15642485,-0.71394014,0.89780164,-2.2958543,-0.3281169,-0.091582775,0.91825914,-2.2758915
-0.41024888,-0.113689624,-0.04488142,-0.6706976,-0.34727585,2.6211162,0.07405615,1.1564863,-1.0043472,-1.6641661,1.7388365,1.4164604,2.1903846
0.11483148,0.048670925,0.7187236,-2.1641657,0.5227882,-1.3505949,-2.037709,1.0484338,1.6508605,-1.1229665,2.0346186,1.6043494,2.196121
-0.4775474,0.07800473,0.723123,-2.3179607,-0.6683592,1.9655279,0.1611259,0.5833887,0.94263864,-1.9480575,-1.648509,0.12436097,0.45659685
-0.23313484,0.090295345,0.12752666,1.7933644,0.5874356,1.0217953,0.7455318,-0.5750152,-0.89032674,-1.3243495,1.1529579,1.2757394,-0.112508535
-0.17276458,-0.38720694,0.58609223,-1.9571854,-0.37405387,2.9077845,1.1889894,0.67800355,0.65187216,-1.459763,1.7322991,1.2854424,1.5164547
0.31902644,0.540412,0.38461137,-1.3895257,0.18296011,0.4859832,-1.1865578,0.19007719,0.3495934,-2.301211,-1.2884567,1.6406435,-1.5321951
0.29656154,0.11505744,0.057185546,1.4265562,0.6699681,0.04565844,-1.1467466,-0.0412848,-1.8388574,-1.4193885,-0.81105506,2.9378746,-0.50874865
0.24582022,0.31425554,0.68467957,-2.643961,-0.5730242,2.2451003,-2.1295457,0.895298,0.92407155,-1.949949,-0.0381999,0.90930533,0.4961586
-0.59347314,-0.18313166,-0.065275826,0.3841829,-1.0239112,2.3044205,1.0977607,0.75069475,-1.295917,-2.2686791,0.1236279,0.20262527,-1.7779843
-0.021329377,0.17277627,0.105457,1.3832155,0.9623617,-3.0785868,-1.5999548,0.046096444,-0.7350253,-1.0536785,-1.9275161,1.0782611,1.2423811
0.090941876,0.055707626,-0.013320692,-0.5612634,-0.8313426,0.64848375,1.7927177,1.078011,-1.498625,-1.0451069,-1.7675958,0.6147972,2.1940453
-0.33612868,-0.18424022,0.25150716,-3.0992532,0.6425507,-3.0163786,2.122317,-0.7989566,-0.12642527,-1.2483779,-0.04572749,2.9645834,-0.66110575
0.014670379,0.12869161,0.6178536,-0.8775437,0.51622546,-1.1945503,0.6706786,0.68093157,2.213248,-1.1190581,0.40454984,1.5972619,-1.8640358
-0.20174673,0.03197925,0.48422557,0.6988427,1.0374999,-1.7321093,-1.0625441,1.3039057,1.0887556,-1.3704206,2.0910943,2.9421463,-0.51604116
0.090617284,0.45923105,0.7954861,-0.77581143,1.0087042,2.951382,-0.9845526,0.8932686,1.8112724,-1.993131,-0.26873422,1.097231,-2.2424262
-0.26058754,0.10570627,0.06339072,2.4568195,-0.40867278,2.1895127,1.230967,0.7747698,-2.143411,-1.3091956,-2.2286944,1.0866178,-0.2661121
-0.041139945,-0.024199069,0.27314338,2.126635,-0.7012273,-1.8536316,-1.340537,0.84815884,-1.6180234,-0.16476798,-2.2124078,1.4845761,-1.2013463
-0.1496441,0.0153282285,0.61096716,1.0105516,0.33882204,2.6477504,-0.55369186,0.42234623,1.2965789,-0.92506623,-0.5591917,1.6070774,-2.3049817
0.051881067,0.06548307,0.7024286,1.5510647,-0.16307499,-0.6829902,0.17832923,0.19065976,1.6809692,-1.2283348,1.5527637,0.4787267,-0.5866904
-0.5541357,-0.19348206,0.38495165,3.042705,-0.8961595,0.64131975,2.0907094,-1.1428223,0.2506137,-1.8915362,0.6496651,0.56062204,-1.2661966
-0.0748597,-0.0009293556,0.48459208,1.217891,-0.6119473,-2.6256056,-0.10839033,0.72053146,1.4569294,-0.8389574,-0.07693696,1.6371888,-0.50831485
0.17582953,0.18935868,0.012326077,-1.0928835,0.20331022,0.20146888,-2.1744967,0.00800395,-1.1010314,-1.0375487,-2.133795,0.1476236,-1.3065628
-0.20581931,-0.2951614,0.057623997,1.1639972,0.018303463,-3.1262302,1.3799782,-0.02439928,-0.79620016,-1.2127457,-2.1301029,0.44994336,-1.1404129
-0.13337016,0.025379546,0.30024573,-1.3473831,0.3111965,1.2347937,-1.1108649,-0.6749452,1.8501575,-0.22473669,-0.15615726,0.5254339,0.22744846
0.31161508,-0.2930724,0.04102148,0.24716693,0.30662256,0.61651874,-1.4741908,-1.073098,-1.5505874,-2.142331,-0.05191064,2.5203679,1.6672175
-0.04654953,-0.23791637,0.032648504,0.018870505,0.8400441,-1.6132916,-2.1317942,-0.22353804,-2.049783,-1.106801,2.2836707,1.3847957,1.5531101
0.19331813,-0.08298385,0.087088645,1.5210053,-0.35013932,-0.32020384,-0.7236513,-1.3242638,-1.384526,-1.0352359,0.8617077,2.7960186,0.88279843
0.30512857,-0.46500415,0.72533166,-1.649571,-0.13296802,-2.5522478,-1.3445966,-0.7976722,2.0541914,-2.322276,-1.4616671,0.85448235,1.6845248
-0.13820794,-0.29426438,0.05315213,-1.8242667,0.20628533,-3.0943606,1.6722796,1.3159654,-1.562715,-1.6428864,0.09504604,2.964983,-1.5329614
0.13754717,0.5377668,0.22221333,0.8261271,-0.8691798,-0.20249532,-0.6777079,-0.060962796,-0.4472127,-2.2020388,2.0640223,1.3650402,0.5181706
-0.21385556,0.46898127,0.6362289,2.257418,1.4303049,0.94109476,-0.20490909,0.3406551,0.94515014,-2.4272351,-0.31286097,2.2971714,2.209522
-0.25169545,0.43327332,0.5981669,2.9596434,0.50718045,1.2404772,-0.060391903,0.20946765,0.94906235,-2.4543898,-1.2411622,1.6619492,0.91420126
-0.09891624,0.099332556,0.21882574,-0.6327888,0.98154056,2.4125848,1.7268789,0.29925942,-2.0693002,-0.66104877,-0.76123405,2.6072354,-2.094093
-0.17102699,0.45455414,0.52641046,-2.3302267,-1.174601,0.30275595,0.87591314,-0.37804902,1.559005,-2.325993,-1.2569498,2.5680704,-0.54841864
-0.22359395,-0.3939268,0.22226094,-0.24300358,-0.18200831,-0.92597306,2.0431821,-0.35417628,-0.4389404,-1.8110435,-0.30444002,2.291034,2.2532995
-0.3486396,0.24495664,0.36369684,-2.1324983,-0.87999076,0.6141114,-0.5159693,0.5138087,0.28549266,-1.5935627,-0.5838257,1.3654776,-0.735888
-0.09513134,-0.024712812,0.19103487,1.5544674,-0.49832192,-0.06711705,-0.2211225,0.4509387,-0.72280693,-0.94596624,1.0248747,2.154831,-1.5323601
0.19400729,-0.15110257,0.551582,-2.7376773,-0.09169914,0.31771737,0.45943308,-1.2149556,2.1660926,-0.92783964,0.6088784,1.0987856,1.5417078
-0.07865256,-0.49235594,0.088743314,2.0387719,-1.2177941,3.1355674,-2.2757154,-0.5786879,-2.2479317,-2.3663442,0.72248507,1.4537417,-0.57430875
-0.009909533,-0.12166198,0.37225085,-2.7659433,0.2647156,-0.011092265,-1.5009452,1.0391266,0.4623587,-0.25712204,-0.18359661,0.8449516,0.8039155
-0.20014718,0.65237594,0.179972,-1.9535127,-1.0974017,-0.35989892,0.8704417,-0.9900418,-0.40181172,-2.3686633,-1.3742268,1.4363285,-2.0672033
-0.20041926,-0.018855073,0.112286165,-2.5168717,-1.0192624,2.8024673,0.41920304,0.5972445,-1.5018985,-1.3714862,-2.2523303,2.6553156,-0.5719875
-0.460254,0.002532944,0.56592643,-0.60137844,1.2077758,-2.6547706,0.28255343,0.17962909,0.36586738,-1.5035601,0.02993989,1.1804821,2.2092388
-0.23424709,0.1701724,0.62151486,0.45099205,-0.70423675,2.5662067,-0.6326059,1.3900738,1.4136987,-1.4703939,-1.3205142,2.146559,-1.1407564
-0.17695493,0.3759328,0.069422305,1.6641879,-0.15241231,-0.26904276,0.74665236,0.21547961,-2.223339,-2.236564,-1.9212964,2.4275303,1.3571315
-0.080628864,0.41192245,0.62503517,-2.1507006,0.26489702,-0.2417958,0.40133238,0.14443243,2.0494897,-2.3419914,1.8330505,2.8643608,-1.864347
0.16595621,0.49763113,0.018175296,-2.6888463,-0.89467245,-1.1986519,-0.4232962,-0.66245884,-0.8131534,-1.7586133,-2.082916,1.062847,-2.2015626
0.091048196,0.2659784,0.084092095,-2.797855,-0.83323723,1.315393,1.2397048,-0.811706,-2.19835,-1.7036445,1.4364614,2.8400736,-2.207108
0.018347457,-0.048854895,0.57056594,-0.7325764,0.68705213,2.4282625,-1.0695589,0.6050055,1.9530966,-0.78434324,-1.74932,0.6622139,0.10310626
-0.24487072,-0.5041977,0.3139423,-1.7292292,-1.2598922,0.8441559,0.9510553,0.87046075,0.08517051,-1.9120276,-1.8470272,0.6780845,0.35298705
0.07729849,-0.124167696,0.08591957,-0.45814478,-0.6115506,-2.277615,-0.1840775,-1.4036356,-1.8017712,-1.2104527,-2.2059653,2.4325933,2.1640346
0.26465887,0.30271342,0.36086863,0.004822291,-0.9250144,2.7283401,-0.2517941,-1.3101132,0.37965155,-1.6434408,0.19872594,2.9580584,-1.9670194
0.06133341,0.1333521,0.6356305,-1.0794709,0.6984872,1.5469607,-0.117777824,-1.3243788,1.3503551,-1.1891615,-0.8922484,0.86705375,-0.23370934
-0.18502492,-0.018359259,0.123736486,1.7636794,0.46791744,2.0256696,-1.5678512,0.9600036,-0.89956355,-0.78806186,1.3065605,0.060852185,-0.6451583
-0.0442891,0.50882524,0.7790355,-2.667457,-0.02766247,-2.3442945,-0.55100095,0.97053957,2.0425198,-1.9429045,1.5962515,0.7395068,2.2733061
0.18821716,-0.14025672,0.25978264,-2.7704399,-0.44904056,2.5649054,1.8781445,1.2182102,-0.34400022,-1.1195402,0.34060287,1.884223,-0.009114981
0.015670732,0.072647855,0.47837183,-2.742309,-0.15436655,-1.7280864,-0.09595418,-1.3917177,-1.9760671,-0.079930544,2.197934,2.964148,-1.6886513
-0.0149192475,0.02513108,0.34804773,-1.302286,0.19952345,-2.1041107,-1.7739934,0.03390789,-1.7726011,-0.51663995,-1.9071219,2.8856013,1.6270278
-0.051860377,0.6335038,-0.016668838,-0.7184436,-0.7524548,-0.14057787,-0.5574614,0.632956,-1.5305166,-2.4211934,-2.048454,0.21120933,-0.25912595
-0.04367798,0.5459429,0.35247108,2.5273714,-1.3071835,-0.8321195,-0.01501894,-0.2564274,0.52465606,-2.3477483,0.18348646,2.8463545,-0.712337
0.35544676,-0.08670192,-0.028880809,2.6463325,-0.044903222,-0.24848457,-0.22495627,-1.2650241,-1.8558183,-1.6337276,-1.7619073,1.7469898,-1.7520761
-0.55598074,-0.019373275,0.3379409,-2.1751692,-0.80068874,1.4484303,0.9631138,-0.45595974,0.20773888,-1.5971799,0.38858366,0.28800964,-1.4648006
-0.53602797,0.18382168,0.27323452,-0.4239906,1.1677328,3.0324807,1.5235357,-1.0033127,-0.38046563,-1.9780585,0.6933081,1.6321459,1.6291649
-0.14112383,-0.108982526,0.25102535,1.2652555,0.19805641,1.0039247,0.32195878,0.66925144,-0.6512058,-1.0449796,2.2727482,1.9104313,-0.7593057
-0.35360807,0.2336759,0.6316441,0.6051532,0.1305829,2.9733105,2.269974,-1.0169849,1.9535396,-1.8873506,-1.8427594,2.5073657,-2.2798452
0.44332615,-0.16440314,0.61071473,-1.1560271,0.51659954,-0.51972353,-1.7859935,-0.7644709,0.83942556,-1.7578096,-1.7907724,1.9248189,-2.2242773
0.32858443,0.17043868,0.8158966,-2.4511962,0.14330438,-2.686652,-1.1922162,-0.34019995,1.2508118,-1.9592528,-1.8716578,0.44140694,1.478925
0.21598662,0.30011925,0.28932804,-1.0584338,0.49834132,-0.53880984,-0.7632718,-0.8620909,-0.12703753,-1.2743576,-2.1283114,1.3730353,-0.6210457
0.04396563,0.005769573,0.28337505,-0.9031062,-0.15664953,0.592794,-0.2531762,-0.13936138,1.6770873,-0.21627378,-0.7011324,1.9406146,0.5931637
0.32217896,-0.4158392,0.74984074,0.90071213,-0.46854833,-0.92182547,2.1678865,1.3877795,1.2725832,-1.9682851,-1.2484568,0.49806422,-1.5512898
-0.26746827,0.4704705,0.3141277,-2.835122,-0.8155677,0.8929997,0.67003655,-0.68511176,0.10646343,-2.4216177,0.30600047,1.7895932,-0.63722456
0.020286985,0.35302255,0.20255229,-0.12478938,0.31230918,-3.1307292,-1.9770617,0.91425276,-0.59542,-1.6147647,-0.7254448,2.5152411,1.9102023
0.019044489,0.13079135,0.09725022,-1.5330116,0.92520684,2.592237,-0.5403191,0.15369344,-1.6406567,-0.9199971,0.81341934,2.6004422,1.7204597
-0.18994275,-0.27363494,0.4181095,-3.0428333,-0.05768019,-0.7742866,2.2690423,-1.0600168,0.20392227,-1.3093581,-0.24366665,0.922224,0.3658259
-0.22185224,-0.23233418,0.5456566,2.543282,1.178011,2.6757517,2.234842,-0.5475152,1.2512703,-1.5685191,2.0183733,2.88484,0.8893738
-0.16954075,0.0527689,-0.047037028,-1.7827977,-0.034260735,-0.9156046,1.7351792,-0.3831495,-1.5411677,-1.5587096,-0.114341974,0.9165787,-0.22777605
0.21677668,0.2708278,0.32695717,-0.0336936,-0.72361463,2.914992,-0.8340515,-0.8600574,0.37055302,-1.628454,1.6070011,2.8873816,-0.7992426
0.0070099756,0.045994155,0.5140847,1.5063504,-0.90435714,1.9624925,-1.143914,0.93583417,1.6884134,-0.59677327,-1.4164982,2.4254515,-1.9347006
0.09495744,0.20140184,0.38308996,-2.7524986,-0.0072087436,-0.9542169,-1.8405688,0.39090586,0.57854104,-0.605021,0.95674443,2.950932,0.8299124
0.037278593,0.15976332,0.17732245,-2.820128,-0.3201137,-1.1061344,-2.1009457,0.84126735,-1.0830803,-0.78249276,-2.2431061,2.023103,-1.188196
0.011592954,-0.022653624,0.44852287,1.261062,-0.001242379,-2.0394583,-0.22105241,-0.23467731,1.7252929,-0.8254924,1.5696344,1.9784424,-1.1803838
-0.13266301,-0.48905516,0.45015424,-1.7351341,-1.0879018,-1.821708,1.4431689,0.8198972,0.113324404,-2.0789907,0.2384665,2.460868,1.7861521
-0.18022466,-0.17984661,0.14877042,-0.52945024,0.88063425,-2.3757048,1.3365386,-0.6160794,-0.88756204,-0.9173374,0.21900153,0.68687457,1.1273599
-0.5103611,0.1387957,0.80717176,0.97136635,0.40406406,0.8202488,0.08090067,1.1228361,1.4421585,-2.3261778,2.1796525,-0.011988113,-1.128213
0.2835219,0.06333776,0.22384134,1.0307001,-0.47009334,0.6417517,-1.0268632,0.65792465,-2.2327864,-1.3310986,2.2362912,2.8324327,0.86107635
-0.0380532,-0.00035464764,0.66426545,-1.6869469,-0.24433039,2.3402243,-0.06218767,-1.4034926,1.5502667,-0.9727926,0.18020368,0.18475139,-0.012451887
-0.1151594,-0.25290433,0.32393518,-2.1073368,0.40391392,-0.45669398,0.9640672,-0.12564659,-0.19685459,-0.91915965,-1.0376449,0.82784694,1.4777212
0.019627273,0.32236826,0.5584933,-2.0467834,0.63492733,-0.60843974,-0.22782516,-0.39761817,0.5954926,-1.4807789,-0.11867452,2.7654312,1.1859565
0.09406133,-0.025632285,0.28340787,-1.736211,0.44478828,0.4342269,1.8176148,0.26705992,1.6656489,-0.21737766,0.352911,2.0980089,-2.0347528
-0.48432016,0.23109916,0.15156795,2.0565083,-1.3944193,0.8778138,1.1413262,0.2042191,-2.2355933,-2.443431,-2.1442952,1.7402722,-0.65804434
0.015962452,-0.19022855,0.6869999,1.7245412,0.4870619,-0.49925432,2.2739437,-0.44362688,1.1612403,-1.2669209,1.1246653,0.38244942,-1.0107633
0.48486853,0.1310403,0.49281746,3.104925,0.7155021,0.9719821,-1.565656,-0.11886811,0.2879784,-2.2418494,-1.7169087,2.817843,-1.0422422
0.028989807,0.029041983,0.3283089,-2.1552522,0.6707924,-2.4701736,0.062595606,0.63368154,-2.1174698,-0.35199523,-0.9797623,1.5318118,-0.19293547
-0.2895227,0.3110234,0.028129764,-2.4978075,-0.2200105,-2.7689657,2.0311568,-0.88616973,-2.004093,-1.7785048,-1.5921566,1.6532707,-1.3231628
0.0038629547,0.6229863,0.51397055,2.6554139,-0.38970852,3.069133,-0.013271093,-0.8847053,0.31389236,-2.0388434,-1.861564,0.74433774,2.1503003
0.14156091,-0.43814594,0.55696595,3.002175,0.3769819,-2.46959,-2.1491659,-0.3783952,2.0338328,-2.4350088,-1.6006188,2.038966,0.4138534
0.05862543,-0.2232671,0.69322395,-2.5229063,0.1650552,2.6700554,-2.061194,-1.042828,1.2292058,-1.5350788,0.6152599,1.2481546,0.7909057
0.11689778,0.03190819,0.31940007,3.0847306,-0.1972838,-0.26058674,-2.0753474,-0.46442062,1.1911535,-0.41119027,2.2660506,2.7160385,0.9361751
-0.34771857,0.19644035,0.063355185,-1.9601886,-0.25520763,-1.7310218,-0.31335735,1.4002848,-1.5130498,-1.9980191,-0.854426,1.9597952,-0.654724
-0.312645,0.16392088,0.5204598,2.6247659,-0.13794737,-1.8744822,-0.23686671,0.7923403,0.889719,-1.5249768,0.9720793,2.4307423,0.69285035
0.4040876,0.025405645,0.437005,-1.7047547,-0.76187724,1.5266713,-1.8897557,-0.26388013,0.6922989,-1.8347101,1.5268815,2.4218514,0.23000312
0.05187101,-0.107303545,0.03314741,0.09184185,0.18111603,0.7203616,1.3813851,1.1393061,-1.2403716,-1.3086243,-1.1868182,1.9968303,2.009567
-0.47461843,0.25283584,0.7358447,2.631795,-0.33131468,1.2585869,0.46793842,0.20752525,1.0345454,-2.2767503,-1.285345,0.49048358,1.154083
-0.017426781,-0.072779104,0.16846663,-1.3874315,-0.45877427,1.8311366,1.2105,-0.8245632,-1.5355972,-0.42212105,1.3977108,1.5306022,1.8411167
-0.28715527,0.0694984,0.067580715,-0.9125523,1.1642693,2.0381756,-0.48287153,1.304996,-0.8484812,-1.4562821,2.2445695,2.374297,1.446902
0.33474565,-0.015221259,0.34958684,1.0005426,-0.06487557,2.644582,-1.551043,-1.0216186,-0.040295362,-1.6429627,-1.7791511,2.2156975,0.64203215
-0.11379634,-0.23274574,0.47788575,-1.599762,1.0603126,0.8089178,0.8514502,0.8350203,1.1010857,-1.3823634,1.950073,2.8612528,0.0376451
0.015825946,-0.036190398,0.34453467,-0.8387136,-0.490046,-2.794582,1.4989095,0.9964068,-0.087020874,-0.34331656,2.1216333,1.6240592,0.04944563
-0.0763614,0.1319059,0.23167759,1.6412271,-0.23438482,0.99090505,-1.0835283,0.009672046,-0.7937223,-0.8370731,0.99520254,1.1529385,-0.10544944
-0.11798841,0.22497381,-0.14539967,-2.0527954,0.26398018,0.46145117,-1.3129305,1.3788748,-1.1673784,-1.5487363,0.29909492,0.277702,-1.3714759
0.028468855,0.047303237,0.45456338,-0.50174445,-0.18274598,-0.027064566,-1.3228542,-0.6673398,1.6167088,-0.5130527,-0.9129821,1.5321314,-0.8148354
-0.2469495,0.0936523,0.2898697,1.0315325,0.013950333,-1.7723929,-0.8319057,0.8076608,0.11751032,-1.0954764,-0.12068725,2.595538,-2.2150695
0.056132734,0.046785317,0.31877357,2.01023,0.44819528,-0.32441285,-1.4810293,-0.53174716,-2.0595217,-0.28153682,-0.7247776,2.1795218,0.7271838
-0.047680333,-0.09744099,0.32110417,1.6597148,-0.8389283,1.0767065,1.1928618,0.008042097,-1.3043725,-0.6052469,-1.2829952,2.9271598,1.3306952
0.10901731,-0.00016714633,0.40959987,-1.9988834,-0.08702063,-0.015004233,-2.2166448,-0.45173627,1.3743322,-0.48573446,-0.0088710785,2.4411592,-1.1551584
-0.04164923,-0.01798144,0.30054012,-2.1375384,-0.055399682,-0.0928698,0.10391998,-0.6942621,-0.18203354,-0.44996953,-1.1875867,1.3104252,0.35947347
-0.10555958,0.0288645,0.068384424,-0.014801735,-0.09969255,2.1371794,0.8832998,-0.744769,-1.372306,-0.83894813,1.4109106,1.0851488,0.9717939
-0.07058957,0.62300754,0.040528454,-1.8211875,-0.7603908,-0.9007088,-0.09635806,0.71342826,-2.1810076,-2.1707585,-0.22515845,0.6397084,-1.6239493
0.33850724,-0.14806145,0.25354543,-1.6341935,0.576219,2.3365216,2.0067976,1.3970037,-0.054273844,-1.698489,0.89959,2.1843157,-0.92696226
0.33203578,0.07949726,0.6109353,2.2994828,1.2288167,-2.7550848,-1.1839983,-0.40050566,1.305753,-1.8929745,-1.7480689,1.7319006,-0.036462784
-0.04640059,-0.009265125,0.45483255,0.13857211,-1.096266,0.43389413,0.049520493,0.6453588,0.062137127,-0.6891662,-2.2535203,2.8595338,-0.27287936
-0.13471122,0.14775717,0.6568258,-3.0867128,0.19164696,-2.4580514,-0.1847732,0.78754973,1.4889445,-1.219677,1.8680317,1.5877929,1.1431975
0.22930178,-0.3008961,0.18974157,3.0719817,-0.12841463,-1.121113,0.94117117,1.2903135,-0.1646905,-1.1614016,1.0006025,0.075339854,-1.1898372
-0.48311898,-0.31641996,0.72976685,1.9228019,0.35622016,0.39185086,2.1042187,-0.039557815,1.4388776,-2.394906,-0.40041113,0.28872886,0.18681788
-0.01259172,0.039521337,-0.018976286,-2.848449,0.6350739,1.4930058,-2.1448345,0.5422318,-1.2728842,-0.8731828,-0.40890443,0.26719198,-1.1890718
0.07262497,-0.20495534,0.5983591,-2.486861,0.18117711,1.6659886,-1.4430127,-0.14849854,1.9770701,-1.2347666,-0.12003088,1.3800663,1.3441696
-0.09698035,-0.13701391,0.36920246,-3.0388598,1.3545691,0.7663511,-0.62431955,-0.29423797,-0.6017586,-0.23236012,-1.5171874,1.0305978,1.7062495
-0.15161686,-0.18703316,0.5312294,-2.5788078,0.13668568,-1.3986063,0.64659095,0.54260767,0.45498276,-1.1635789,0.09482956,1.3019909,1.0022752
0.06383321,0.21764565,0.14093164,0.12882817,0.6083888,1.5544722,-0.54055643,0.83521676,-1.9418278,-1.0653311,1.1580253,2.5098937,0.6783426
-0.018581606,-0.007669948,0.37978154,-0.9240783,-1.2660452,-0.8537873,1.5605819,-1.1296465,2.1420286,-0.11465907,2.116441,2.4226573,1.795533
-0.0703381,0.19699642,0.5120454,1.0353836,0.8255796,1.011109,-0.47254658,-1.16738,0.84338975,-0.5785117,1.5864956,0.8359543,1.9110577
-0.010775644,-0.19944268,0.29681665,-0.26099232,0.8991235,0.06776435,0.47619057,1.1260626,0.16426921,-0.8761934,-0.068793535,2.4572105,-2.2876983
-0.061609372,-0.4609145,-0.041653946,-0.74578506,0.15223719,1.3453796,-2.2356744,-1.1158819,-1.4023807,-2.378203,-1.621323,1.6991787,1.5235131
0.03729201,0.038373508,0.15954846,-1.3713145,0.3355579,-1.8770738,-0.37312007,-0.39143384,-1.5596764,-1.0488673,-1.7774496,1.9708014,0.71655345
0.05196222,0.040672764,0.30655503,2.7021904,-1.0543729,-2.1224222,1.9463403,-1.2743733,0.41364455,-0.154001,-0.7021594,1.5504619,0.29021263
-0.13795991,0.10309877,0.32033485,-1.2597244,0.6530434,1.4065593,-1.0764966,-1.2304646,2.250171,-0.19852972,0.246984,0.13942856,0.19103241
-0.07932903,0.048283294,0.083068386,-0.35240197,-0.9005217,-2.8927634,1.3407774,0.04821956,-2.0162776,-0.93047607,0.6033137,2.0590997,1.5125444
0.0045446306,0.6848176,0.6794865,0.12145567,0.3636373,0.8498981,-1.0336834,0.9246118,1.2079344,-2.3984942,-1.4523549,0.6404009,-2.3025465
0.081665136,-0.0105890855,0.005355522,2.825421,-0.67383987,-0.9920499,0.19448066,0.08658409,-1.749995,-0.73854554,-0.9489678,0.47819695,-1.6957302
-0.36392143,-0.32071775,-0.09628613,1.9086871,-1.009332,-1.1121422,1.7383392,0.37134743,-1.4296082,-2.2452388,1.612715,1.5702771,-2.2923515
0.19709197,0.186463,0.6298543,-1.8646487,1.2570676,1.720368,-2.2860036,1.3011951,1.4887848,-1.6693646,-1.845535,1.5953776,0.017415285
0.10118526,-0.20911762,0.42371386,1.0011935,-0.41539386,-2.1022034,1.4959948,0.4364611,0.5903375,-0.7978029,-1.5577147,0.7060988,-0.13343477
-0.34822905,0.14111401,0.43699288,2.1333117,0.3517091,-1.9825459,-0.21311545,0.66531444,0.7321398,-1.5878041,1.7030804,2.5761952,0.64417005
-0.13570383,0.19111958,0.22964308,3.1356828,0.4774264,2.1729143,-1.0637447,-0.5736967,-0.60566604,-0.6968658,-1.4801521,0.021457404,0.7072544
-0.25148416,0.3373029,0.6883567,2.3352184,0.5315347,-0.7603492,1.0367203,0.3584684,2.109422,-1.8713605,-0.58667994,1.1901466,1.6444545
0.12338175,0.2141312,0.4167192,0.51308066,1.1102059,-1.2932796,-1.9585825,0.25040102,0.52664065,-1.1068509,-2.0249994,1.4444181,0.31634665
-0.09667601,-0.17629863,0.3141236,-0.59814006,0.4342053,-2.6233506,-0.893857,1.2107127,-0.72794724,-0.3733797,0.19014788,0.7272674,1.6184602
-0.027416095,0.0239884,0.3922916,2.0230837,0.1066739,-2.8288286,0.56634116,0.764596,1.7671769,-0.5136291,0.73689985,1.7623446,0.01541996
0.006462846,0.03323099,0.24788354,-0.42623824,-0.18288486,-2.2665784,-1.714407,0.17977,-0.4171368,-0.6501578,1.013953,2.9824808,-2.0321136
0.0018502921,0.15042038,0.14309046,-0.42352533,-0.58083814,0.22638312,-2.154085,-0.5967539,-1.3111881,-0.56467223,1.2974753,0.009435188,0.10428095
0.22194853,0.036863495,-0.10764727,-1.6387774,-1.2635652,0.57252336,-1.32132,0.7634442,-1.9358937,-1.1402873,0.6327095,0.22812364,2.1190312
0.32241994,0.10229741,0.05778128,1.3664256,-0.0010042128,0.14711234,-0.5031328,-0.93792117,-1.2488146,-1.5976443,1.3850217,2.5918572,1.2968869
-0.08345866,-0.017828912,0.27234384,2.233254,-1.0789942,0.2812817,-1.5233296,0.64777446,-0.41616893,-0.57570577,0.83448625,1.5827363,-1.3278491
-0.48108232,0.13449183,0.31246465,2.1914663,0.5356072,0.17831874,0.89492774,-0.28123426,-0.19958639,-2.0361655,0.9903157,1.4656075,0.31966138
-0.06244925,0.06714126,0.2813855,-0.69836646,-0.9942052,0.75849795,-1.2917867,0.15794432,2.1488855,-0.109297276,0.22769332,1.4127548,-0.66021967
-0.0029763803,-0.26214042,0.7068154,1.3136358,0.58104753,-0.67036813,1.8374178,1.371228,1.7705767,-1.6928525,-0.88219345,1.0658436,-0.24500728
0.074412964,-0.16647229,0.47181657,0.89054126,-0.019345997,-1.4569963,0.5738473,0.71163225,1.1828582,-0.6652777,0.52082205,0.7715681,-1.4512703
0.12266198,0.0407006,0.2919773,-1.8186344,-0.52082115,-1.835982,1.695185,0.26730907,-1.419558,-0.3973825,-0.2738788,0.5774749,0.18989897
-0.5458304,0.10298025,0.3751061,1.4564852,-0.2771793,-2.136867,0.76057076,0.12551403,0.377177,-2.2488525,-0.809211,2.6134858,-2.0524518
0.51712716,-0.26418746,0.03380523,-1.6988229,1.0626001,-0.3504428,-2.0719697,-0.54779565,-0.84359527,-1.9495935,-1.8479158,0.72946715,-1.6153659
0.03457018,0.031613424,0.29519647,0.2117345,0.80315083,0.43066695,0.6090858,0.24044323,-2.1886957,-0.19097877,-1.5716398,2.4601893,-2.045262
-0.16524097,-0.392469,0.079626255,0.8434397,0.20270914,-2.9154444,0.57560134,0.98429966,-0.73653924,-1.2845799,-1.918772,0.16078317,-1.3998078
-0.0540089,-0.016868064,0.23613177,-2.064117,-0.10583305,2.3059497,1.3602848,0.93829584,-1.7042065,-0.38676977,-1.1386741,2.1623578,-0.95776224
0.2527895,-0.37607738,0.0031490065,3.0592895,0.17484297,2.1816673,-1.2992291,-1.2399447,-1.3205047,-2.150166,-0.43654025,2.0058768,-1.6032989
-0.043038525,0.04014185,0.1882774,-2.613971,-0.6691972,-1.1571147,-1.583063,-0.9344779,-2.129692,-0.7049842,2.1391451,1.7361642,-1.5904444
-0.0067058504,0.04783654,0.38428497,1.8667376,-1.241514,-2.2947922,-1.7515509,-0.37621832,1.8411014,-0.5626023,0.9256325,2.4692025,-1.8346018
0.052274447,0.14055935,0.6628713,0.9029846,-0.66829276,0.44748238,-1.4537088,-0.69850826,0.85246706,-0.7879201,-1.6550795,-0.013341552,-1.755835
-0.008701172,-0.053530544,0.25263298,2.240884,0.517537,0.4311813,-1.2157815,0.55230355,-1.3889685,-0.5492568,-0.056865454,1.1982845,-0.44215798
0.3776346,-0.008215576,0.71346676,-1.9089597,0.27595478,-2.8537638,-0.5370021,-0.39548743,2.2348597,-1.8173051,-1.8633113,0.6774652,0.6860118
-0.16696689,-0.013751633,0.15704307,1.4245683,-1.094664,1.835542,-1.1703366,-1.3337855,-2.067789,-0.8096061,0.5587094,0.58919543,-0.83176947
-0.39774373,-0.20055838,0.6273052,-0.31617323,0.14988121,-1.6523191,1.6726837,0.60483265,2.1054575,-2.001456,-0.94895315,2.3603022,-1.8954802
0.10842696,-0.021272898,0.30697587,0.22460097,0.6297876,-0.2988587,-0.28567195,-0.31190228,-1.9682932,-0.2961471,1.9030402,2.8130307,1.4462657
0.0898207,-0.028226968,0.4937694,-0.3475361,1.024288,-0.92623824,0.11257291,-1.4052294,1.2179754,-0.9053503,-1.4463439,2.6304142,0.40778708
-0.014753029,0.064854644,-0.07763678,2.985165,0.4820329,1.7314587,1.0511532,-1.3393736,-1.4738176,-1.3672919,1.5103295,0.95181286,-1.7026906
-0.25640348,-0.4122956,0.48354384,-1.0697359,-0.19377246,-1.6399806,2.1121414,-0.5233357,0.19005871,-1.6943157,0.17711234,1.7791562,2.2966077
0.13815632,0.0427659,0.14399195,1.418648,1.0353688,-0.29775372,-0.37424636,-0.71123385,-2.0503957,-0.7788683,-0.3690411,2.6479928,0.31667566
-0.21996847,0.15004122,0.0057068095,-1.1333768,-1.2003247,0.5152066,1.1578662,-1.2361326,-0.95879424,-1.1889156,-2.156901,0.5313147,-0.62860084
-0.07754221,-0.19439659,-0.06612744,2.0342836,-1.0665616,-2.565226,-1.2081668,-1.1482444,-2.0773458,-1.4276047,2.0756028,0.75227875,-1.7199526
0.097992666,0.27999425,0.73469937,-1.5281287,0.3940397,-2.7144084,0.19041753,0.33639503,2.1151793,-1.3088045,-1.1523287,0.29948196,-1.1911399
-0.015951663,-0.0054338276,0.43557706,2.7545176,0.44940314,2.4362218,1.7636878,-1.3381891,1.7653725,-0.80710113,-2.3096278,2.9048758,1.9572799
-0.02354914,0.007046057,0.40571728,-1.1049689,0.28024668,-0.6498985,-1.6932707,1.3537757,0.2715249,-0.59428453,-1.0767952,2.345478,1.2104023
-0.009829365,-0.110575095,0.041275635,-1.195545,-0.076647505,-0.017645238,0.039103985,0.9952769,-1.072509,-1.0220377,-2.1643028,1.0768266,1.760402
-0.11383433,0.24744505,0.1654666,-2.1611795,0.3761388,-2.5426178,0.6980102,0.87646556,-2.3010383,-1.0534027,-0.8492261,1.6642611,-1.3241103
-0.11082586,0.3789704,0.058270857,2.8960307,0.45181957,0.27107218,-0.13743949,0.50686765,-1.4858303,-2.1899567,0.7535114,2.1284268,-0.59495854
0.19385481,-0.5193324,0.26747116,2.2930744,0.27602294,-0.7876471,2.3017023,0.19587278,-0.07122016,-1.8910261,1.0984719,0.9189131,-1.4578202
-0.003168635,-0.007884622,0.32597753,2.7843325,-1.0008657,-0.50674355,-1.6598059,0.11115754,1.6113288,-0.41253304,1.6344357,1.808506,-0.63334525
-0.024644993,0.13225119,0.24075857,-1.224393,0.049423166,0.20912701,-1.7120216,0.19793022,-0.45154595,-0.526952,-2.2357054,1.0203594,-0.31010056
0.04391618,-0.15492615,0.42853627,-2.3366358,0.13322844,1.4202257,1.7648318,0.72604775,1.1659997,-0.8701314,1.795738,2.4347827,0.25342178
-0.0042071193,-0.114058115,0.011546567,1.0486264,0.5367326,2.3119476,-0.99039507,-1.2564654,-1.7112651,-1.2803165,-1.6568902,1.0215975,0.8126557
0.16579747,-0.058005482,0.415861,-2.4360964,-0.06880114,-1.6086404,1.5341063,0.19902349,0.12584352,-0.38475347,-0.13024426,0.30244553,0.95765233
-0.17504312,0.112194195,0.7394925,-2.611518,-1.3557242,1.3686928,0.96795845,-0.43615228,1.408541,-1.5632277,-0.7089938,0.6416114,0.09870362
-0.09760141,-0.054685906,0.5905892,1.0860265,-0.03408758,0.8665806,-1.6187763,-0.28539026,1.9310644,-0.6247939,-1.2846851,0.26530877,-1.0022559
-0.15061882,0.117660284,0.103940964,-1.9697138,0.62959623,2.853965,1.89097,0.21962786,-2.033334,-0.8986981,-1.1845336,1.9055763,-1.9117904
-0.22755429,0.38666904,0.70725447,2.1972551,-0.26591498,0.93367195,1.0156832,-1.164921,0.7564051,-1.8580275,-0.12251544,0.58664984,1.1364248
0.025069028,-0.5146359,0.47284213,-2.6264756,0.6844766,2.9040837,1.6763604,1.2813349,0.8165667,-2.4171522,0.69593835,2.2660346,0.6146388
-0.30462784,-0.05536279,0.44087496,0.78020686,0.11792667,2.712284,0.6213496,-0.6395001,0.3234229,-0.71889913,-1.1522818,0.87423205,-2.26334
0.020832412,0.10593529,0.49865574,2.7316978,-0.4377917,-2.4953961,0.1956811,-0.04179597,2.0403187,-0.8113551,1.867986,2.1177356,0.6138866
0.06916662,-0.22780967,0.13920492,-0.4769237,-1.0482501,-1.3231503,-2.152008,-0.13232803,-1.8445095,-1.252873,1.1108825,2.4480987,0.08249164
-0.2371276,0.50339967,0.3498698,0.81831,-0.8458497,-2.4153538,-0.22678089,0.25974607,0.5162635,-2.4379363,0.10583711,2.9141898,-1.4846243
-0.074523434,-0.059891224,0.27037057,-1.8330352,-0.567157,-3.116322,1.2551432,-0.2433368,-1.4017451,-0.50037,-0.0948987,2.1960664,1.0617743
-0.03001605,-0.004283212,0.23790959,0.35343164,-0.64729226,-0.4940586,0.48159456,-0.3822354,-0.576777,-0.788224,1.5748372,2.903635,-1.497477
-0.11555733,0.13658741,0.5997083,1.8693001,-1.0606658,2.8290215,-0.37166846,0.9483957,1.6569703,-1.1757762,2.2130177,2.8405375,2.1813552
0.06523964,0.18506747,0.054801993,-1.1984739,0.65930295,-0.32700676,1.1639786,0.39922488,-2.1963608,-1.0710409,1.9989283,0.48756766,-1.4928412
-0.10809888,0.030600555,0.30641806,0.86687654,-0.71667075,1.1427051,-0.83070433,-0.7831429,-1.625966,-0.40201807,1.2251322,0.83407706,-0.5761683
-0.22682247,0.28443432,0.12086561,1.8016883,-0.66211003,2.0019128,-1.2877722,0.63895416,-0.6781429,-1.3309233,2.22342,0.5034106,-0.85243976
0.22885948,0.3220619,-0.0045875832,-2.4805417,1.1700956,0.14346993,-0.07325864,-0.041155457,-1.9469209,-2.0077844,0.25365376,1.2549511,-0.8277379
0.029917225,0.022881202,0.45695007,-2.704789,0.14449117,2.6557398,2.0449216,0.73752046,1.0125067,-0.6038426,1.0514712,1.1166705,0.07938552
0.3278574,0.5621496,0.01327911,2.7117352,0.5999573,-2.9953094,0.06153655,-1.0042129,-0.74515295,-2.4510624,0.95524406,0.26807442,-1.0896558
-0.24646688,0.29629079,0.4438439,2.1115854,0.5771564,2.4689026,-0.46119225,-0.25883317,0.26860356,-1.3578218,-1.3534625,1.292416,1.9097674
0.3649363,0.42255083,0.42336592,-0.4655777,0.14130566,-0.26504755,-0.53461313,-1.0919459,0.16047859,-1.626704,-1.8452909,0.6696683,-1.2693467
0.2826079,-0.033347577,0.10598106,0.7295249,-0.023049563,0.32935894,0.04553008,-1.3067056,-1.9311581,-1.3259325,1.0392864,2.5158231,0.7691133
0.22247878,0.052354928,0.8079021,-1.4936558,-0.38689244,3.0230308,-1.6979208,0.53265095,1.6497233,-1.602331,-0.055697918,0.18076676,0.038550377
0.10824366,0.45407692,0.12557602,2.4256463,0.56367445,2.3827553,-0.64984393,-0.482022,-0.5063716,-1.8566201,-0.58384097,0.8245857,0.34051037
0.06948465,0.027801737,0.6276806,2.8976958,1.0747191,-1.8961409,1.5052347,0.74800897,1.476124,-0.8969823,1.1648998,0.19837621,-0.3568945
0.09246996,-0.4817565,0.74402547,-1.6755811,-0.4311823,-2.0493097,1.6052165,1.2317882,0.9067035,-2.0227997,-0.27187276,1.1867673,2.1801093
-0.43403435,-0.20650595,0.6606644,-1.3115575,0.8293456,2.6310802,0.22527838,1.2572649,0.879534,-1.8385979,1.7951872,0.7573641,0.7946534
-0.35321164,-0.5676107,0.026154622,0.6765336,-0.52221537,3.036839,2.2382944,0.005948186,-0.8468996,-2.2102187,-0.55569506,0.08852856,-1.5788875
-0.046673533,0.6187455,0.7221754,-1.8517375,0.6916665,-3.1302352,1.4931517,-1.276917,1.8530109,-2.1625326,-0.5846189,0.37902796,-1.994584
0.2952558,0.06616485,0.09051577,2.930445,-1.3694806,0.59614867,-0.43100166,-1.4027592,-0.8621402,-1.3688895,-0.48419976,2.9952393,-1.6907082
0.24574079,0.31155685,0.5928967,-1.2368481,-0.04391287,0.8764973,-1.6632298,0.8089571,1.3122509,-1.8725864,-1.1868553,2.152841,-0.90603733
0.086750165,0.13716528,0.23473084,-0.6005426,0.5873238,0.8293981,1.6226876,0.9250865,1.3837368,-0.11747646,1.3017194,1.2852112,-2.1951766
0.008497391,-0.08492905,0.47092384,-1.8544225,1.1568843,-0.6016094,-1.5773082,-0.8363294,2.228462,-0.5295466,1.6874588,2.4359403,1.2350585
-0.066238105,0.02843602,0.39991486,1.6142927,1.1151996,0.12116121,-0.9444972,0.3462397,0.5018203,-0.3615396,1.9523714,1.2658206,0.48351908
0.01869516,0.005461678,0.25645262,0.9666859,-0.50979155,-1.7805657,1.8584416,1.0653021,-0.9369036,-0.23045707,2.1515706,1.7689275,1.2185166
0.16220182,0.27445483,0.59453374,2.1815581,0.18810833,-3.0777123,-0.32668328,-1.0684128,0.9158211,-1.727822,-1.7891195,1.8454589,1.313745
0.16666627,0.11527465,0.05022034,-0.45610538,0.8154697,1.9063543,-0.17313886,-0.72710645,-1.8980775,-1.3208611,0.19954896,2.34903,1.2934139
-0.01064318,-0.3561429,0.46212953,-2.4688673,1.0119756,1.4922023,2.2605517,-0.010328293,0.92790365,-1.5059732,1.9701178,3.0001867,0.8959789
-0.306768,0.3333579,-0.12216759,-0.4209056,0.38248515,0.06902834,1.1684928,-0.16907918,-1.777194,-2.178475,-1.8017701,0.7252709,1.4122593
0.6757187,0.1304831,0.031644683,-1.7243994,-0.9215426,-0.7612777,-0.2794652,-1.303765,-1.3021568,-2.400372,0.508049,0.44524202,1.6925385
-0.13847563,0.18159714,0.26476198,-2.66464,0.6815228,-0.45163116,-1.0042249,0.570884,-0.43951547,-1.1343241,-0.47725344,1.7833793,0.34294224
0.2810604,0.14626147,0.3374791,1.0183076,-0.055782743,-2.7179623,-2.1039748,-0.05618882,0.15198493,-1.4715314,-2.2485826,1.9380732,0.829962
0.24754082,0.06432612,-0.154846,-0.82301974,-1.2172196,0.89734465,-1.7183213,0.44879782,-1.6839691,-1.4105127,0.53074265,0.15873101,1.5604932
-0.28825852,0.06494259,0.55520356,1.5799196,0.7667526,-2.3732922,0.4109068,0.385064,1.3449516,-1.6298571,1.6371567,2.5916383,0.11287093
-0.13980472,0.09566384,0.37183684,0.9101512,0.5186709,1.6095606,-1.5012815,-0.20618594,-0.9182211,-0.2681594,-0.3345753,0.8869298,1.6181781
0.053706527,0.026102964,0.23358452,1.9124879,0.7833844,-0.6303945,-0.5020962,-1.3035263,-2.1314254,-0.48177278,-0.45779622,2.4058266,0.91802835
-0.36456743,-0.32817483,0.64439595,2.9619734,0.4647212,1.9332314,1.8703077,1.0182679,2.2193553,-1.7927533,1.4819434,1.4352489,1.8455703
0.3393065,-0.1539464,0.12210311,2.937451,-1.1248865,1.8746766,-1.6250429,0.3288716,-1.9762661,-1.9210371,1.8950069,2.9209225,0.004835367
-0.48047936,0.30503973,-0.067982584,-1.2262865,1.1993941,0.20176584,1.801914,-0.85260075,-1.6305768,-2.4296741,-0.6310296,0.5684114,1.0650511
-0.12985781,-0.20537212,0.56839085,2.5743065,-0.22039115,-2.5563774,-1.452816,-1.3017464,2.078603,-1.4594454,-0.67030585,2.4848256,1.9552982
-0.16911313,0.2078866,0.018926837,-0.39295807,-0.3732158,-1.8378097,1.5394475,-0.9344048,-1.6742098,-1.8490477,-0.9805938,2.1003497,0.9357929
0.3974245,-0.009936854,0.6367218,2.588412,1.0647683,1.8636842,-0.6551205,-0.58240473,1.9523032,-2.2036655,1.7469666,2.77673,-2.1970356
0.22293621,0.14861229,0.78390086,-1.6319704,-0.942143,-2.9551442,0.8620343,-1.0112292,1.9954026,-1.6529915,-1.9907528,0.3703249,1.4453378
-0.43329844,0.39656195,0.088917434,0.31410158,0.5992785,2.4056838,-0.47976315,0.9458716,-1.081509,-2.2740195,0.9759562,1.6629845,1.7512314
0.042971916,0.11273045,0.25832608,-1.5063018,1.0877008,-2.6591756,0.78809285,0.1258961,-2.1463454,-0.6756803,-0.27447963,1.7470694,-0.6808548
-0.12281289,-0.011311801,0.223995,-1.5757949,0.2996758,-3.0032692,-0.6443275,1.3764787,-1.1779968,-0.6677592,0.3655572,2.0877619,0.76764464
-0.001479283,0.49475968,-0.061492987,2.924714,0.74531525,2.037004,-0.96997106,0.8243706,-1.4075136,-2.3253849,0.9739232,0.7655848,-0.6046673
-0.07369793,-0.093949564,0.060892463,0.72653055,0.67816454,3.0885942,1.0682142,-1.0194163,-1.4547946,-0.71022284,0.35798335,0.012155727,0.654264
-0.038188815,0.068264216,0.16867377,-2.0347948,0.18183064,2.4463654,-0.7776468,1.277153,-1.8110356,-0.5889176,0.7421658,2.8750775,1.8102314
-0.3399438,-0.036576465,-0.021489784,1.9221681,-1.2404822,-2.9365888,2.2978966,-1.2861769,-0.9553156,-1.5016034,-1.6777294,0.7891328,-0.75103843
0.014950102,-0.028444313,0.45137548,2.0899768,-1.3122451,-1.7633257,-1.7129705,-0.4493736,1.923866,-0.9275029,1.9075458,2.3721352,-0.8269911
0.08012451,0.105586,0.36537942,3.0488367,-0.3935021,-2.6800885,1.3493469,1.011092,-0.017625093,-0.27742815,-0.43438864,0.66175604,0.6496031
-0.009409238,-0.06844634,0.38330796,-0.41257697,1.0979812,-1.9082555,2.0584824,0.9539778,2.1972692,-0.20804429,-0.05700469,2.396665,-0.38577843
-0.12598869,0.32552126,0.237855,1.7245777,0.09019722,2.797824,-1.1697173,-0.15282714,-0.33532512,-1.101304,-1.5178851,0.9623326,2.1022284
0.13938218,0.22953308,-0.028906055,0.17494398,-0.35911092,-1.0118352,-0.00399518,-0.17398477,-1.6358874,-1.7618712,-2.3093731,1.7912929,1.4271963
0.16947503,-0.20251846,0.71000034,-0.029043056,0.21999267,2.7337394,-2.166481,0.7104001,2.2010658,-1.5419637,0.9295082,0.908487,-1.419157
-0.23055913,0.10806233,0.08956066,2.807114,0.10255189,-0.70068187,-0.9086046,1.3570211,-0.7581376,-1.4595373,0.040915966,1.8871163,-0.8519871
-0.08066663,0.21132964,0.16701083,-2.6184928,-0.6246667,2.9222424,0.007262945,-1.2876241,-0.7574769,-1.0906088,1.6994536,1.4447404,-1.6026999
-0.2820204,-0.3026494,0.055093817,2.8271685,-0.7643177,-2.8889987,1.9510357,1.1911318,-2.190092,-1.9038947,0.42985392,1.5965793,-1.3762867
0.005422525,0.36271036,0.612106,-2.1614485,-0.036228575,1.2859575,-0.9565048,0.99887204,1.6212442,-2.062723,-1.5671728,1.8751138,0.10242653
0.17157649,-0.08119881,0.6159528,-1.7672685,-0.8513466,-0.19090836,-2.3158112,-0.17826486,1.7660806,-1.5333519,2.1382668,2.9927976,0.33749628
